# This PCD file was generated using the MATLAB® pcwrite function
# from Computer Vision Toolbox®.
# .PCD v.7 - Point Cloud Data file format
VERSION .7
FIELDS x y z
SIZE 4 4 4
TYPE F F F
COUNT 1 1 1
WIDTH 1738
HEIGHT 1
VIEWPOINT 0 0 0 1 0 0 0
POINTS 1738
DATA ascii
0.004557 0.046068 5.180944
0.028406 0.045927 5.165096
0.000000 0.000000 0.000000
0.071426 0.043088 4.845874
0.092751 0.042600 4.791111
0.114434 0.042432 4.772367
0.000000 0.000000 0.000000
0.157748 0.042223 4.749200
0.000000 0.000000 0.000000
0.202325 0.042370 4.766050
0.223528 0.042216 4.749025
0.243935 0.041953 4.719705
0.266022 0.041999 4.725080
0.288463 0.042089 4.735523
0.311263 0.042216 4.750001
0.330609 0.041888 4.713387
0.352936 0.041954 4.721217
0.375349 0.042023 4.729243
0.398457 0.042158 4.744709
0.422242 0.042346 4.766247
0.443707 0.042295 4.760774
0.464647 0.042201 4.750473
0.486297 0.042177 4.748050
0.508126 0.042170 4.747524
0.000000 0.000000 0.000000
0.000000 0.000000 0.000000
0.000000 0.000000 0.000000
0.173609 0.012288 1.383698
0.179371 0.012246 1.378954
0.185604 0.012237 1.378025
0.191633 0.012216 1.375684
0.197419 0.012182 1.371791
0.203619 0.012174 1.370916
0.210078 0.012182 1.371774
0.216024 0.012160 1.369304
0.221859 0.012134 1.366280
0.228116 0.012131 1.365925
0.234753 0.012148 1.367779
0.240991 0.012145 1.367246
0.247036 0.012132 1.365643
0.253102 0.012120 1.364205
0.259474 0.012124 1.364414
0.265915 0.012130 1.364931
0.272159 0.012128 1.364397
0.278110 0.012112 1.362412
0.284143 0.012101 1.360863
0.290188 0.012091 1.359396
0.296376 0.012087 1.358598
0.302541 0.012083 1.357677
0.308710 0.012078 1.356761
0.314259 0.012051 1.353152
0.320217 0.012039 1.351354
0.326421 0.012037 1.350584
0.332735 0.012039 1.350223
0.338819 0.012033 1.348895
0.345146 0.012036 1.348492
0.351664 0.012045 1.348763
0.357656 0.012036 1.346968
0.363603 0.012026 1.344991
0.369751 0.012023 1.343727
0.377016 0.012055 1.346413
0.382799 0.012040 1.343717
0.388431 0.012021 1.340493
0.394589 0.012018 1.339068
0.400769 0.012016 1.337665
0.407762 0.012038 1.338874
0.413312 0.012018 1.335277
0.420458 0.012044 1.336759
0.426628 0.012041 1.335030
0.431435 0.012001 1.329039
0.437644 0.012000 1.327364
0.444488 0.012016 1.327519
0.450989 0.012023 1.326533
0.457233 0.012023 1.324703
0.464076 0.012039 1.324507
0.469721 0.012023 1.320812
0.477386 0.012059 1.322686
0.484645 0.012084 1.323256
0.491172 0.012090 1.321696
0.498093 0.012105 1.321084
0.504633 0.012111 1.319341
0.510386 0.012099 1.315472
0.516868 0.012103 1.313415
0.524682 0.012138 1.314602
0.531451 0.012149 1.313023
0.537615 0.012146 1.309862
0.544828 0.012166 1.309157
0.554438 0.012238 1.314008
0.561197 0.012247 1.311914
0.568404 0.012265 1.310771
0.576060 0.012293 1.310545
0.584190 0.012329 1.311261
0.592151 0.012362 1.311462
0.600070 0.012393 1.311458
0.608002 0.012423 1.311381
0.616363 0.012462 1.312137
0.624513 0.012495 1.312361
0.630117 0.012478 1.307246
0.641431 0.012572 1.313926
0.649910 0.012610 1.314695
0.657113 0.012623 1.312910
0.666791 0.012682 1.316091
0.673791 0.012690 1.314037
0.680628 0.012694 1.311807
0.695757 0.012852 1.325543
0.694775 0.012712 1.308763
0.710030 0.012869 1.322769
0.715200 0.012841 1.318075
-1.808970 0.045683 3.073775
-1.872233 0.047692 3.207798
-1.873319 0.048139 3.237359
-1.863823 0.048320 3.249693
-1.853717 0.048487 3.261882
-1.857463 0.049024 3.299597
-1.879695 0.050062 3.371883
-1.857035 0.049913 3.364935
-1.846826 0.050100 3.381266
-1.849159 0.050632 3.421735
-1.868888 0.051656 3.496170
-1.855681 0.051781 3.510452
-1.852603 0.052193 3.544870
-1.856707 0.052817 3.594361
-1.850412 0.053155 3.624960
-1.846286 0.053563 3.660826
-1.828810 0.053587 3.670936
-1.854477 0.054889 3.769069
-1.859841 0.055611 3.827917
-1.865329 0.056351 3.888485
-1.873691 0.057194 3.956576
-1.848830 0.057031 3.955204
-1.849351 0.057655 4.008584
-1.850080 0.058299 4.063560
-1.848198 0.058874 4.113879
-1.841047 0.059292 4.153309
-1.838202 0.059860 4.203259
-1.852333 0.060999 4.293497
0.000000 0.000000 0.000000
-1.849105 0.062296 4.405091
-1.848092 0.062987 4.463932
-1.855042 0.063970 4.543413
-1.866583 0.065136 4.636009
-1.860286 0.065700 4.685757
0.000000 0.000000 0.000000
-1.884484 0.068202 4.883223
-1.882913 0.068999 4.949465
-1.873852 0.069538 4.997088
0.000000 0.000000 0.000000
0.000000 0.000000 0.000000
0.000000 0.000000 0.000000
0.000000 0.000000 0.000000
-1.861490 0.073759 5.342930
-1.856769 0.074582 5.410208
-1.829302 0.074502 5.411714
-1.801307 0.074398 5.411142
-1.775491 0.074382 5.416680
-1.752331 0.074479 5.430116
-1.724700 0.074385 5.429412
-1.693891 0.074150 5.418038
-1.665747 0.074026 5.414492
-1.641066 0.074055 5.421822
-1.613307 0.073943 5.418618
-1.580634 0.073599 5.398105
-1.552298 0.073449 5.391545
-1.528672 0.073520 5.401008
-1.501599 0.073426 5.398030
-1.464633 0.072836 5.358387
-1.461144 0.073919 5.441639
-1.435240 0.073887 5.442590
-1.407210 0.073742 5.435034
-1.381231 0.073701 5.434947
-1.356387 0.073721 5.439105
-1.331238 0.073724 5.441887
-1.310742 0.073990 5.463895
-1.283359 0.073870 5.457231
-1.252006 0.073512 5.432808
-1.226628 0.073497 5.433593
-1.201988 0.073528 5.437521
-1.178280 0.073617 5.445703
-1.161370 0.074145 5.486150
-1.122328 0.073251 5.421314
-1.101084 0.073505 5.441256
-1.076178 0.073520 5.443438
-1.051351 0.073542 5.445965
-1.024296 0.073405 5.436639
-1.000335 0.073489 5.443527
-0.974795 0.073458 5.441829
-0.947140 0.073262 5.427791
-0.920303 0.073120 5.417688
-0.894466 0.073052 5.412966
-0.869093 0.073018 5.410763
-0.846066 0.073186 5.423375
-0.822570 0.073322 5.433588
-0.797490 0.073322 5.433583
-0.773236 0.073399 5.439324
-0.746590 0.073247 5.428005
-0.720921 0.073184 5.423208
-0.695489 0.073141 5.419878
-0.668704 0.072947 5.405339
-0.644025 0.072977 5.407337
-0.618021 0.072853 5.397910
-0.597901 0.073441 5.441226
-0.574048 0.073603 5.452890
-0.549445 0.073679 5.458175
-0.521619 0.073308 5.430432
-0.498213 0.073554 5.448256
0.000000 0.000000 0.000000
-0.442831 0.072719 5.385751
-0.418805 0.072865 5.396220
-0.394994 0.073069 5.410986
-0.369960 0.073059 5.409929
-0.345556 0.073182 5.418649
-0.321999 0.073516 5.443108
-0.295936 0.073287 5.425831
-0.267293 0.072317 5.353763
-0.243905 0.072717 5.383049
-0.218715 0.072608 5.374779
0.000000 0.000000 0.000000
-0.167124 0.071776 5.312761
-0.142594 0.071782 5.313055
-0.117888 0.071684 5.305615
-0.093256 0.071591 5.298624
0.000000 0.000000 0.000000
-0.044068 0.071219 5.270935
0.000000 0.000000 0.000000
0.004561 0.070074 5.186157
0.028608 0.070287 5.201918
0.000000 0.000000 0.000000
0.070919 0.065011 4.811544
0.091744 0.064031 4.739133
0.113581 0.063999 4.736879
0.135284 0.063914 4.730710
0.156921 0.063826 4.724345
0.178646 0.063790 4.721912
0.201489 0.064118 4.746417
0.223389 0.064112 4.746131
0.244582 0.063921 4.732276
0.265579 0.063715 4.717266
0.289960 0.064290 4.760137
0.311619 0.064224 4.755487
0.331769 0.063875 4.729976
0.352582 0.063690 4.716519
0.374725 0.063752 4.721426
0.396728 0.063785 4.724166
0.419490 0.063930 4.735222
0.000000 0.000000 0.000000
0.464107 0.064054 4.744987
0.485631 0.064004 4.741581
0.506722 0.063904 4.734432
0.526952 0.063708 4.720165
0.000000 0.000000 0.000000
0.000000 0.000000 0.000000
0.173633 0.018676 1.383892
0.179342 0.018606 1.378738
0.185187 0.018554 1.374932
0.190935 0.018496 1.370671
0.197133 0.018484 1.369802
0.203537 0.018492 1.370367
0.209985 0.018503 1.371163
0.215870 0.018465 1.368326
0.221569 0.018414 1.364486
0.228002 0.018425 1.365235
0.234870 0.018470 1.368451
0.240975 0.018454 1.367145
0.246875 0.018423 1.364743
0.253019 0.018412 1.363748
0.259177 0.018402 1.362839
0.265464 0.018402 1.362605
0.271467 0.018382 1.360915
0.277883 0.018391 1.361284
0.284020 0.018381 1.360261
0.289942 0.018358 1.358223
0.295767 0.018330 1.355784
0.301958 0.018325 1.355039
0.308065 0.018316 1.353903
0.313989 0.018296 1.351964
0.319771 0.018269 1.349448
0.325909 0.018263 1.348439
0.332166 0.018264 1.347889
0.338420 0.018264 1.347275
0.344650 0.018263 1.346524
0.350571 0.018246 1.344541
0.356812 0.018247 1.343755
0.362197 0.018204 1.339754
0.365984 0.018083 1.330003
0.374114 0.018178 1.336010
0.380361 0.018179 1.335115
0.386718 0.018186 1.334539
0.393190 0.018198 1.334278
0.400352 0.018241 1.336229
0.405614 0.018197 1.331774
0.411189 0.018168 1.328371
0.417064 0.018154 1.325918
0.423463 0.018162 1.325074
0.429231 0.018143 1.322195
0.435229 0.018134 1.319984
0.442571 0.018181 1.321734
0.448679 0.018177 1.319679
0.454125 0.018146 1.315637
0.461698 0.018200 1.317657
0.469761 0.018272 1.320859
0.476687 0.018298 1.320681
0.483707 0.018327 1.320625
0.491263 0.018375 1.321872
0.497802 0.018384 1.320240
0.504277 0.018391 1.318339
0.509886 0.018367 1.314108
0.516203 0.018368 1.311649
0.525034 0.018458 1.315407
0.532359 0.018493 1.315187
0.538392 0.018483 1.311674
0.545272 0.018502 1.310142
0.554727 0.018607 1.314609
0.562600 0.018657 1.315110
0.569435 0.018672 1.313065
0.578609 0.018762 1.316259
0.586155 0.018799 1.315585
0.594993 0.018875 1.317672
0.602197 0.018899 1.316020
0.611424 0.018985 1.318676
0.620974 0.019079 1.321868
0.627724 0.019085 1.319024
0.640232 0.019265 1.328149
0.648145 0.019305 1.327599
0.657677 0.019391 1.330329
0.665245 0.019419 1.329083
0.673524 0.019466 1.329309
0.679604 0.019450 1.325308
0.688460 0.019512 1.326841
0.696762 0.019558 1.327401
0.706307 0.019637 1.330433
0.714981 0.019691 1.331945
0.000000 0.000000 0.000000
-1.870843 0.063400 3.178952
-1.862290 0.063660 3.190788
-1.881176 0.064870 3.250942
-1.876047 0.065267 3.270990
-1.870990 0.065673 3.292239
-1.891045 0.066976 3.359190
-1.870745 0.066860 3.355743
-1.848702 0.066680 3.349729
-1.846963 0.067235 3.381387
-1.858753 0.068298 3.439333
-1.863980 0.069137 3.486809
-1.856958 0.069534 3.512665
-1.862850 0.070426 3.564254
-1.860587 0.071025 3.601629
-1.855004 0.071507 3.633691
-1.841659 0.071697 3.651372
-1.835713 0.072182 3.684497
-1.854179 0.073646 3.768148
-1.850014 0.074231 3.807364
-1.849102 0.074961 3.854319
-1.846986 0.075657 3.899837
-1.847967 0.076496 3.952998
-1.843922 0.077142 3.996447
-1.854128 0.078405 4.072077
-1.852797 0.079202 4.123734
-1.844951 0.079735 4.161733
0.000000 0.000000 0.000000
-1.864161 0.082379 4.320518
-1.857109 0.083002 4.363389
0.000000 0.000000 0.000000
-1.852765 0.084738 4.474828
-1.872002 0.086627 4.584557
-1.873515 0.087732 4.652829
-1.878354 0.089021 4.730871
0.000000 0.000000 0.000000
-1.883421 0.091470 4.880078
-1.875209 0.092212 4.928829
-1.878662 0.093554 5.009533
0.000000 0.000000 0.000000
0.000000 0.000000 0.000000
0.000000 0.000000 0.000000
-1.866179 0.097902 5.276649
-1.877226 0.099815 5.387737
-1.855912 0.100038 5.407361
-1.832031 0.100125 5.419444
-1.804707 0.100025 5.421021
-1.789006 0.100575 5.457588
-1.758943 0.100322 5.450294
-1.728976 0.100067 5.442571
-1.696796 0.099675 5.427038
-1.667498 0.099442 5.419904
-1.641800 0.099420 5.423977
-1.614227 0.099283 5.421450
-1.580868 0.098779 5.398652
-1.553668 0.098650 5.396064
-1.528903 0.098674 5.401592
-1.515763 0.099461 5.448726
-1.496543 0.099870 5.474916
-1.466452 0.099555 5.461203
-1.438186 0.099354 5.453567
-1.409686 0.099131 5.444415
-1.381893 0.098949 5.437379
-1.355721 0.098879 5.436268
-1.331174 0.098927 5.441465
-1.308616 0.099128 5.454881
-1.281085 0.098952 5.447417
-1.253315 0.098751 5.438359
-1.228810 0.098804 5.443136
-1.207049 0.099084 5.460296
-1.182291 0.099125 5.464129
-1.153086 0.098787 5.446916
-1.130765 0.099036 5.461974
-1.103109 0.098820 5.451180
-1.078856 0.098905 5.456905
-1.055687 0.099095 5.468354
-1.029688 0.099023 5.465192
-1.002458 0.098826 5.455027
-0.972642 0.098358 5.429759
-0.944764 0.098065 5.414132
-0.919429 0.098028 5.412509
-0.893350 0.097908 5.406185
-0.871361 0.098241 5.424860
-0.847449 0.098371 5.432230
-0.821283 0.098239 5.425078
-0.793084 0.097849 5.403556
-0.765782 0.097547 5.386892
-0.748398 0.098530 5.441162
-0.722910 0.098478 5.438189
-0.696214 0.098252 5.425550
-0.671005 0.098227 5.423967
-0.644939 0.098069 5.415044
-0.624649 0.098812 5.455828
-0.600309 0.098950 5.463189
-0.574894 0.098915 5.460969
-0.547760 0.098568 5.441484
-0.520149 0.098097 5.415185
-0.497023 0.098468 5.435297
-0.469398 0.097939 5.405760
-0.443968 0.097834 5.399644
-0.420334 0.098136 5.415978
-0.396843 0.098512 5.436389
-0.371428 0.098429 5.431467
-0.346531 0.098481 5.434011
-0.323508 0.099116 5.468709
-0.297991 0.099029 5.463601
-0.270952 0.098373 5.427142
-0.244231 0.097711 5.390337
-0.218514 0.097345 5.369930
0.000000 0.000000 0.000000
-0.166614 0.096025 5.296655
-0.142175 0.096044 5.297534
-0.117428 0.095819 5.285025
0.000000 0.000000 0.000000
0.000000 0.000000 0.000000
-0.043919 0.095248 5.253226
0.000000 0.000000 0.000000
0.004549 0.093788 5.172638
0.028254 0.093152 5.137575
0.050280 0.090089 4.968708
0.072720 0.089456 4.933872
0.000000 0.000000 0.000000
0.113080 0.085503 4.716053
0.134927 0.085541 4.718305
0.156790 0.085578 4.720500
0.178427 0.085497 4.716228
0.200595 0.085661 4.725444
0.223158 0.085944 4.741316
0.244938 0.085902 4.739236
0.000000 0.000000 0.000000
0.000000 0.000000 0.000000
0.312546 0.086440 4.769699
0.332777 0.085976 4.744410
0.353772 0.085755 4.732503
0.374207 0.085432 4.714964
0.396225 0.085486 4.718237
0.418189 0.085523 4.720584
0.441821 0.085881 4.740621
0.464580 0.086043 4.749872
0.487251 0.086175 4.757443
0.507776 0.085933 4.744322
0.525305 0.085224 4.705450
0.544124 0.084773 4.680757
0.167662 0.025124 1.387285
0.172870 0.024952 1.377819
0.179530 0.024994 1.380185
0.185653 0.024961 1.378395
0.190826 0.024806 1.369896
0.197253 0.024820 1.370637
0.203531 0.024814 1.370321
0.209311 0.024750 1.366759
0.215294 0.024713 1.364671
0.221670 0.024722 1.365104
0.227823 0.024706 1.364155
0.234321 0.024727 1.365245
0.240626 0.024728 1.365157
0.246504 0.024685 1.362680
0.252550 0.024662 1.361206
0.258727 0.024651 1.360458
0.264133 0.024570 1.355752
0.270810 0.024608 1.357599
0.277473 0.024643 1.359253
0.283549 0.024625 1.357978
0.289248 0.024576 1.354948
0.295098 0.024542 1.352691
0.301181 0.024528 1.351524
0.307488 0.024533 1.351333
0.313301 0.024498 1.348970
0.318919 0.024450 1.345818
0.324864 0.024429 1.344077
0.331248 0.024441 1.344124
0.337329 0.024430 1.342890
0.342803 0.024377 1.339263
0.348164 0.024317 1.335263
0.354191 0.024306 1.333837
0.359727 0.024261 1.330564
0.365559 0.024238 1.328405
0.371858 0.024246 1.327899
0.378589 0.024282 1.328838
0.384440 0.024260 1.326617
0.390820 0.024273 1.326173
0.398691 0.024376 1.330619
0.404630 0.024360 1.328477
0.410296 0.024327 1.325414
0.416606 0.024334 1.324390
0.422767 0.024332 1.322822
0.428932 0.024330 1.321197
0.435431 0.024346 1.320517
0.442330 0.024385 1.320934
0.448039 0.024357 1.317710
0.454122 0.024351 1.315543
0.460998 0.024386 1.315571
0.469500 0.024506 1.320034
0.476752 0.024558 1.320768
0.484303 0.024623 1.322157
0.491331 0.024661 1.321954
0.498367 0.024699 1.321635
0.504477 0.024690 1.318757
0.510899 0.024696 1.316615
0.517083 0.024691 1.313776
0.526189 0.024824 1.318189
0.533362 0.024863 1.317551
0.541403 0.024942 1.318894
0.553683 0.025211 1.330233
0.556429 0.025046 1.318524
0.565742 0.025176 1.322335
0.573263 0.025225 1.321772
0.581139 0.025288 1.321892
0.589918 0.025389 1.323910
0.597602 0.025440 1.323327
0.605303 0.025492 1.322686
0.621435 0.025893 1.340145
0.626134 0.025815 1.332732
0.636403 0.025965 1.337143
0.644115 0.026010 1.336086
0.652677 0.026087 1.336767
0.661610 0.026177 1.338175
0.669400 0.026221 1.337279
0.677386 0.026272 1.336830
0.685857 0.026340 1.337407
0.690894 0.026276 1.331445
0.698470 0.026310 1.330574
0.000000 0.000000 0.000000
0.000000 0.000000 0.000000
0.830691 0.030414 1.530807
-1.857728 0.078996 3.156726
-1.860462 0.079802 3.187690
-1.872790 0.081036 3.236455
-1.882658 0.082186 3.282497
-1.882012 0.082892 3.311584
-1.881020 0.083596 3.341302
-1.875357 0.084103 3.363908
-1.858316 0.084105 3.367011
-1.846447 0.084343 3.380274
-1.860276 0.085770 3.441952
-1.867398 0.086912 3.492972
-1.859916 0.087390 3.518002
-1.857176 0.088102 3.553111
-1.868251 0.089489 3.616149
-1.859296 0.089935 3.641759
-1.845477 0.090152 3.658582
-1.860600 0.091802 3.734063
-1.857861 0.092594 3.775225
-1.856586 0.093477 3.820466
-1.847899 0.094000 3.851372
-1.852517 0.095219 3.911060
-1.850634 0.096125 3.958237
-1.841029 0.096646 3.989704
-1.832102 0.097214 4.023221
-1.851528 0.099314 4.120419
-1.850456 0.100350 4.173654
-1.861373 0.102066 4.255345
-1.867721 0.103567 4.328260
0.000000 0.000000 0.000000
-1.849052 0.104894 4.404065
-1.876767 0.107707 4.532282
-1.878993 0.109106 4.601162
-1.873314 0.110075 4.651819
-1.890583 0.112431 4.761158
-1.874577 0.112842 4.788071
0.000000 0.000000 0.000000
0.000000 0.000000 0.000000
0.000000 0.000000 0.000000
-1.903053 0.120445 5.148181
0.000000 0.000000 0.000000
-1.876252 0.121881 5.226635
0.000000 0.000000 0.000000
-1.873808 0.125021 5.377463
-1.858134 0.125678 5.413378
-1.831972 0.125634 5.418828
-1.807917 0.125735 5.430235
-1.786258 0.126008 5.448788
-1.761828 0.126091 5.458826
-1.731079 0.125717 5.448796
-1.701404 0.125412 5.441399
-1.672757 0.125174 5.436632
-1.648098 0.125232 5.444431
-1.618473 0.124908 5.435370
-1.588297 0.124530 5.423697
-1.554461 0.123849 5.398507
-1.535553 0.124355 5.424788
-1.516961 0.124903 5.452743
-1.491266 0.124875 5.455334
-1.465932 0.124877 5.459002
-1.437974 0.124652 5.452512
-1.410895 0.124496 5.448840
-1.382042 0.124175 5.437737
-1.354673 0.123978 5.431847
-1.328593 0.123894 5.430707
-1.304165 0.123963 5.436129
-1.280319 0.124092 5.443976
-1.252432 0.123826 5.434353
-1.229809 0.124080 5.447396
-1.205934 0.124216 5.455101
-1.180120 0.124154 5.453954
0.000000 0.000000 0.000000
-1.127997 0.123967 5.448483
-1.103342 0.124025 5.452219
-1.079921 0.124228 5.462190
-1.052654 0.123988 5.452553
-1.032695 0.124618 5.481072
-0.999545 0.123647 5.439099
-0.970017 0.123086 5.415044
-0.944983 0.123081 5.415330
-0.920402 0.123136 5.418188
-0.894623 0.123030 5.413851
-0.871304 0.123265 5.424477
-0.850355 0.123860 5.450833
-0.819683 0.123031 5.414497
-0.788904 0.122134 5.375072
-0.772276 0.123440 5.432575
-0.748477 0.123649 5.441743
-0.721828 0.123386 5.430065
-0.697668 0.123545 5.436909
-0.670845 0.123226 5.422704
-0.646971 0.123445 5.432141
-0.627090 0.124474 5.477197
-0.602960 0.124711 5.487359
-0.575174 0.124180 5.463693
-0.546921 0.123494 5.433212
-0.520661 0.123214 5.420580
-0.494521 0.122936 5.408008
-0.469816 0.123004 5.410654
-0.445673 0.123234 5.420463
-0.421947 0.123615 5.436858
-0.397278 0.123749 5.442439
-0.372507 0.123868 5.447352
-0.346784 0.123665 5.438092
-0.322106 0.123832 5.445103
-0.298718 0.124565 5.477039
-0.271519 0.123697 5.438601
-0.244677 0.122832 5.400296
-0.218763 0.122289 5.376178
-0.188175 0.118659 5.216403
0.000000 0.000000 0.000000
-0.141974 0.120345 5.290159
-0.117970 0.120789 5.309527
-0.092928 0.120125 5.280191
0.000000 0.000000 0.000000
-0.043879 0.119408 5.248521
-0.019543 0.118872 5.224957
0.004529 0.117159 5.149648
0.000000 0.000000 0.000000
0.051453 0.115680 5.084714
0.000000 0.000000 0.000000
0.000000 0.000000 0.000000
0.000000 0.000000 0.000000
0.000000 0.000000 0.000000
0.000000 0.000000 0.000000
0.000000 0.000000 0.000000
0.000000 0.000000 0.000000
0.000000 0.000000 0.000000
0.000000 0.000000 0.000000
0.000000 0.000000 0.000000
0.000000 0.000000 0.000000
0.000000 0.000000 0.000000
0.333368 0.108075 4.752920
0.354788 0.107915 4.746169
0.375468 0.107562 4.730922
0.000000 0.000000 0.000000
0.420200 0.107831 4.743357
0.442627 0.107960 4.749335
0.465841 0.108260 4.762823
0.487936 0.108285 4.764181
0.509115 0.108113 4.756879
0.529859 0.107867 4.746291
0.000000 0.000000 0.000000
0.166885 0.031379 1.380859
0.173128 0.031356 1.379880
0.179271 0.031317 1.378199
0.185504 0.031296 1.377294
0.191323 0.031208 1.373466
0.197332 0.031156 1.371186
0.203316 0.031104 1.368871
0.209409 0.031071 1.367391
0.215621 0.031057 1.366736
0.221617 0.031013 1.364769
0.227824 0.031001 1.364151
0.234106 0.030999 1.363980
0.240529 0.031016 1.364588
0.246391 0.030961 1.362041
0.251691 0.030840 1.356557
0.257538 0.030790 1.354182
0.263730 0.030783 1.353660
0.269669 0.030748 1.351855
0.275906 0.030747 1.351547
0.282430 0.030778 1.352587
0.288250 0.030732 1.350238
0.294026 0.030683 1.347739
0.300423 0.030700 1.348081
0.306386 0.030673 1.346448
0.311917 0.030605 1.342966
0.317440 0.030538 1.339527
0.323096 0.030487 1.336714
0.328517 0.030415 1.332987
0.334803 0.030425 1.332780
0.340698 0.030400 1.330983
0.346481 0.030366 1.328748
0.352572 0.030360 1.327676
0.359008 0.030382 1.327841
0.365288 0.030392 1.327352
0.371410 0.030388 1.326230
0.377757 0.030402 1.325845
0.383675 0.030382 1.323901
0.389995 0.030393 1.323292
0.397115 0.030466 1.325277
0.404296 0.030541 1.327291
0.410360 0.030531 1.325532
0.416777 0.030547 1.324841
0.423982 0.030619 1.326525
0.430134 0.030615 1.324800
0.437004 0.030660 1.325185
0.443640 0.030689 1.324741
0.449030 0.030631 1.320516
0.454395 0.030574 1.316220
0.464881 0.030858 1.326535
0.470829 0.030837 1.323652
0.478060 0.030900 1.324269
0.484383 0.030903 1.322249
0.492569 0.031023 1.325157
0.499732 0.031077 1.325124
0.506225 0.031088 1.323191
0.512274 0.031072 1.320020
0.519772 0.031143 1.320468
0.527031 0.031198 1.320154
0.536348 0.031373 1.324779
0.546459 0.031589 1.331062
0.557374 0.031846 1.338949
0.565526 0.031941 1.339926
0.573481 0.032023 1.340267
0.000000 0.000000 0.000000
0.000000 0.000000 0.000000
0.000000 0.000000 0.000000
0.000000 0.000000 0.000000
0.000000 0.000000 0.000000
0.000000 0.000000 0.000000
0.634228 0.032811 1.349802
0.638712 0.032700 1.341839
0.646141 0.032740 1.340137
0.656697 0.032936 1.344854
0.669031 0.033216 1.353040
0.675775 0.033216 1.349875
0.692239 0.033689 1.366012
0.000000 0.000000 0.000000
0.000000 0.000000 0.000000
0.000000 0.000000 0.000000
0.000000 0.000000 0.000000
0.000000 0.000000 0.000000
0.000000 0.000000 0.000000
-1.864023 0.095360 3.167496
-1.870119 0.096505 3.204279
-1.846498 0.096123 3.191030
-1.869696 0.098194 3.259874
-1.869906 0.099083 3.290223
-1.870947 0.100033 3.323315
-1.869389 0.100860 3.353071
-1.864019 0.101494 3.377176
-1.858125 0.102112 3.401448
-1.871179 0.103792 3.461880
-1.872123 0.104826 3.501527
-1.868678 0.105631 3.534257
-1.871046 0.106784 3.579293
-1.864729 0.107458 3.608947
-1.862558 0.108388 3.647732
-1.859924 0.109308 3.686775
-1.862110 0.110533 3.736621
-1.870875 0.112177 3.801171
-1.864963 0.112966 3.837183
-1.857136 0.113654 3.870085
-1.843684 0.114008 3.891860
-1.849236 0.115558 3.954679
-1.854929 0.117149 4.019241
-1.832324 0.116968 4.023120
-1.832794 0.118272 4.078131
-1.842803 0.120228 4.155785
-1.872475 0.123524 4.280104
-1.861679 0.124195 4.313634
-1.857782 0.125346 4.363836
-1.851216 0.126342 4.408594
-1.827678 0.126189 4.413119
0.000000 0.000000 0.000000
0.000000 0.000000 0.000000
-1.868491 0.133681 4.704901
-1.884825 0.136498 4.813622
-1.886365 0.138300 4.886580
0.000000 0.000000 0.000000
-1.879691 0.141308 5.011171
-1.880714 0.143202 5.087145
-1.901189 0.146645 5.218182
-1.883031 0.147161 5.244930
0.000000 0.000000 0.000000
-1.874613 0.150472 5.379200
-1.854890 0.150934 5.403370
-1.835626 0.151447 5.429090
-1.809317 0.151384 5.433911
-1.785860 0.151562 5.447060
-1.759564 0.151501 5.451315
-1.731754 0.151305 5.450442
-1.704150 0.151122 5.449716
-1.680063 0.151250 5.459929
-1.654566 0.151253 5.465365
-1.630189 0.151360 5.474298
-1.592675 0.150231 5.438249
-1.564878 0.149997 5.434298
-1.533696 0.149426 5.417859
-1.508519 0.149430 5.422041
-1.485912 0.149694 5.435406
-1.459268 0.149552 5.433859
-1.434268 0.149578 5.438145
-1.407764 0.149444 5.436453
-1.380478 0.149221 5.431299
-1.356040 0.149304 5.437060
-1.326877 0.148859 5.423443
-1.305719 0.149313 5.442366
-1.279376 0.149180 5.439739
-1.256478 0.149451 5.451692
-1.226198 0.148838 5.431203
-1.204535 0.149267 5.448587
-1.179196 0.149248 5.449508
-1.151257 0.148893 5.437980
-1.126252 0.148910 5.439906
-1.101565 0.148970 5.443298
-1.076357 0.148961 5.444037
-1.053512 0.149287 5.456882
-1.024131 0.148679 5.435512
-0.999237 0.148709 5.437334
-0.969551 0.148009 5.412360
-0.946243 0.148272 5.422482
-0.920721 0.148192 5.420011
-0.895794 0.148206 5.420887
-0.872349 0.148474 5.430945
-0.846432 0.148324 5.425662
-0.817224 0.147570 5.398239
-0.793721 0.147832 5.407888
-0.772625 0.148573 5.435034
-0.749736 0.149008 5.450912
-0.723087 0.148700 5.439559
-0.694330 0.147921 5.410919
-0.672670 0.148652 5.437492
-0.646680 0.148445 5.429740
-0.619771 0.148003 5.413326
-0.602869 0.150013 5.486599
-0.575400 0.149455 5.465905
-0.545525 0.148192 5.419425
-0.521313 0.148420 5.427452
-0.495541 0.148204 5.419252
-0.474562 0.149476 5.465409
-0.448951 0.149349 5.460435
-0.421285 0.148483 5.428432
-0.397148 0.148829 5.440778
-0.373234 0.149312 5.458103
-0.347069 0.148899 5.442688
-0.322606 0.149209 5.453687
-0.297608 0.149302 5.456810
-0.271324 0.148708 5.434822
-0.244688 0.147781 5.400671
-0.218790 0.147139 5.376975
-0.188837 0.143256 5.234879
-0.165172 0.143705 5.251071
-0.142398 0.145216 5.306112
-0.118533 0.146011 5.335039
-0.093457 0.145341 5.310440
0.000000 0.000000 0.000000
-0.044010 0.144085 5.264380
-0.019446 0.142297 5.199027
0.000000 0.000000 0.000000
0.028079 0.139754 5.106111
0.051667 0.139750 5.106031
0.000000 0.000000 0.000000
0.000000 0.000000 0.000000
0.000000 0.000000 0.000000
0.000000 0.000000 0.000000
0.000000 0.000000 0.000000
0.000000 0.000000 0.000000
0.000000 0.000000 0.000000
0.000000 0.000000 0.000000
0.000000 0.000000 0.000000
0.000000 0.000000 0.000000
0.000000 0.000000 0.000000
0.311839 0.130195 4.759105
0.333085 0.129911 4.748981
0.354111 0.129581 4.737218
0.375597 0.129448 4.732641
0.399078 0.129979 4.752367
0.421903 0.130253 4.762657
0.444875 0.130542 4.773531
0.466729 0.130492 4.771976
0.489076 0.130578 4.775384
0.508995 0.130036 4.755819
0.531146 0.130086 4.757870
0.000000 0.000000 0.000000
0.000000 0.000000 0.000000
0.173583 0.037823 1.383522
0.178861 0.037590 1.375052
0.184728 0.037493 1.371538
0.190938 0.037470 1.370698
0.196987 0.037418 1.368790
0.203382 0.037432 1.369312
0.209554 0.037406 1.368336
0.215829 0.037399 1.368049
0.221226 0.037245 1.362351
0.227381 0.037224 1.361483
0.234035 0.037283 1.363552
0.240311 0.037280 1.363332
0.246039 0.037195 1.360076
0.251528 0.037079 1.355657
0.257079 0.036977 1.351745
0.263226 0.036964 1.351042
0.268897 0.036886 1.347949
0.274709 0.036830 1.345649
0.281184 0.036864 1.346581
0.287449 0.036870 1.346446
0.293223 0.036813 1.344015
0.298257 0.036668 1.338314
0.304410 0.036664 1.337713
0.310788 0.036686 1.338051
0.316629 0.036646 1.336051
0.321804 0.036531 1.331308
0.327723 0.036503 1.329703
0.333781 0.036492 1.328645
0.339552 0.036450 1.326435
0.345331 0.036411 1.324262
0.352096 0.036475 1.325807
0.359042 0.036555 1.327885
0.365327 0.036567 1.327407
0.371796 0.036596 1.327517
0.377912 0.036590 1.326295
0.383814 0.036564 1.324286
0.390569 0.036619 1.325141
0.397201 0.036660 1.325458
0.404729 0.036782 1.328606
0.411174 0.036804 1.328051
0.417386 0.036803 1.326662
0.424089 0.036846 1.326741
0.433048 0.037081 1.333650
0.438325 0.036998 1.329065
0.445237 0.037053 1.329379
0.451589 0.037061 1.327908
0.459440 0.037191 1.330696
0.466374 0.037243 1.330652
0.472923 0.037264 1.329391
0.479913 0.037318 1.329250
0.488820 0.037518 1.334207
0.496277 0.037604 1.334974
0.502175 0.037570 1.331437
0.518180 0.038284 1.354270
0.000000 0.000000 0.000000
0.000000 0.000000 0.000000
0.000000 0.000000 0.000000
0.000000 0.000000 0.000000
0.591890 0.041163 1.441522
0.609648 0.041906 1.464318
0.618555 0.042031 1.465362
0.626878 0.042113 1.464849
0.633360 0.042072 1.459953
0.641254 0.042124 1.458248
0.652370 0.042384 1.463676
0.661579 0.042516 1.464606
0.671517 0.042692 1.466985
0.680856 0.042826 1.467902
0.692614 0.043108 1.473851
0.000000 0.000000 0.000000
0.000000 0.000000 0.000000
0.000000 0.000000 0.000000
0.000000 0.000000 0.000000
0.000000 0.000000 0.000000
0.000000 0.000000 0.000000
0.000000 0.000000 0.000000
0.000000 0.000000 0.000000
0.000000 0.000000 0.000000
0.000000 0.000000 0.000000
0.000000 0.000000 0.000000
0.000000 0.000000 0.000000
-1.866643 0.111612 3.172035
-1.856100 0.111948 3.180309
-1.866368 0.113557 3.225383
-1.860458 0.114200 3.243742
-1.860673 0.115235 3.273911
-1.860549 0.116267 3.304737
-1.863753 0.117528 3.342809
-1.866734 0.118798 3.381897
-1.869337 0.120067 3.421730
-1.866923 0.121035 3.453721
-1.868667 0.122293 3.494734
-1.870657 0.123591 3.537626
-1.870197 0.124751 3.577254
-1.864784 0.125600 3.608597
-1.854107 0.126107 3.630691
-1.854355 0.127375 3.675214
-1.860939 0.129108 3.733712
-1.869880 0.131041 3.798558
-1.865583 0.132077 3.837843
-1.853724 0.132593 3.862338
-1.846746 0.133473 3.897669
-1.866307 0.136309 3.990505
-1.851935 0.136701 4.012064
-1.839005 0.137209 4.037091
-1.849305 0.139481 4.114155
-1.852995 0.141298 4.178044
-1.843569 0.142145 4.213303
-1.855433 0.144670 4.298427
-1.846099 0.145582 4.335660
-1.850586 0.147617 4.406356
-1.844089 0.148813 4.452008
0.000000 0.000000 0.000000
-1.899649 0.156954 4.715824
0.000000 0.000000 0.000000
0.000000 0.000000 0.000000
-1.889835 0.161940 4.894831
-1.883254 0.163398 4.948128
-1.893157 0.166342 5.046345
-1.880326 0.167338 5.085382
-1.887717 0.170183 5.180494
0.000000 0.000000 0.000000
-1.889644 0.174911 5.341245
-1.872282 0.175652 5.371832
-1.853774 0.176304 5.399457
-1.836848 0.177127 5.432056
-1.813877 0.177382 5.446979
-1.791157 0.177669 5.462604
-1.758066 0.176921 5.446082
-1.730989 0.176765 5.447463
-1.712512 0.177496 5.475902
-1.678102 0.176572 5.453021
-1.650298 0.176326 5.450750
-1.624160 0.176253 5.453557
-1.597885 0.176163 5.455561
-1.568631 0.175735 5.446873
-1.542873 0.175692 5.449836
-1.513433 0.175221 5.439281
-1.482620 0.174572 5.422961
-1.457780 0.174617 5.427933
-1.430484 0.174363 5.423431
-1.403520 0.174142 5.419712
-1.395232 0.176272 5.489006
-1.357639 0.174710 5.443151
-1.331403 0.174578 5.441636
-1.308575 0.174897 5.453984
-1.284823 0.175102 5.462627
-1.257514 0.174821 5.455932
-1.233946 0.175059 5.465280
-1.204254 0.174420 5.447087
-1.176538 0.174046 5.437017
-1.151779 0.174103 5.440255
-1.127308 0.174207 5.444827
-1.102190 0.174213 5.446218
-1.075742 0.174005 5.440775
-1.049302 0.173787 5.434940
-1.021090 0.173259 5.419252
-0.997973 0.173590 5.430347
-0.978863 0.174653 5.464247
-0.947699 0.173565 5.430747
0.000000 0.000000 0.000000
-0.898822 0.173807 5.439152
-0.872377 0.173540 5.431075
-0.845552 0.173178 5.419984
-0.822491 0.173590 5.433007
-0.797997 0.173715 5.437010
-0.775266 0.174244 5.453607
-0.749754 0.174163 5.451048
-0.723052 0.173791 5.439319
-0.689370 0.171653 5.372301
-0.674157 0.174126 5.449555
-0.648373 0.173955 5.444005
-0.619803 0.172993 5.413670
-0.595600 0.173219 5.420513
-0.571517 0.173502 5.429102
-0.547151 0.173721 5.435668
-0.519998 0.173034 5.413858
-0.499044 0.174444 5.457671
-0.475283 0.174971 5.473825
-0.447292 0.173912 5.440385
-0.419606 0.172853 5.406922
-0.395759 0.173342 5.421887
-0.372825 0.174323 5.452256
-0.346262 0.173627 5.430175
-0.322096 0.174118 5.445218
-0.297148 0.174233 5.448531
-0.271562 0.173961 5.439762
-0.245423 0.173244 5.417064
-0.217182 0.170711 5.337639
0.000000 0.000000 0.000000
0.000000 0.000000 0.000000
-0.140970 0.168025 5.253083
-0.116921 0.168335 5.262645
-0.090860 0.165152 5.163013
-0.067843 0.167205 5.227118
-0.043567 0.166709 5.211549
-0.019423 0.166122 5.193160
0.000000 0.000000 0.000000
0.028090 0.163404 5.108221
0.051438 0.162615 5.083588
0.000000 0.000000 0.000000
0.000000 0.000000 0.000000
0.000000 0.000000 0.000000
0.000000 0.000000 0.000000
0.000000 0.000000 0.000000
0.000000 0.000000 0.000000
0.000000 0.000000 0.000000
0.000000 0.000000 0.000000
0.000000 0.000000 0.000000
0.281986 0.160179 5.009134
0.000000 0.000000 0.000000
0.311970 0.152235 4.761229
0.332352 0.151504 4.738657
0.353865 0.151348 4.734043
0.377232 0.151956 4.753348
0.400526 0.152469 4.769707
0.423402 0.152779 4.779677
0.445707 0.152862 4.782546
0.466577 0.152468 4.770498
0.488104 0.152315 4.765959
0.511761 0.152811 4.781731
0.530389 0.151826 4.751141
0.000000 0.000000 0.000000
0.000000 0.000000 0.000000
0.172988 0.044055 1.378783
0.178234 0.043781 1.370241
0.184099 0.043672 1.366867
0.190307 0.043650 1.366172
0.196739 0.043678 1.367069
0.202874 0.043641 1.365890
0.209090 0.043623 1.365299
0.214626 0.043468 1.360415
0.220503 0.043389 1.357885
0.226853 0.043406 1.358310
0.233349 0.043448 1.359537
0.239657 0.043454 1.359602
0.245579 0.043392 1.357507
0.251200 0.043280 1.353856
0.256911 0.043190 1.350829
0.261554 0.042928 1.342427
0.267448 0.042879 1.340649
0.273138 0.042800 1.337912
0.279893 0.042888 1.340354
0.286968 0.043021 1.344145
0.291460 0.042768 1.335883
0.297181 0.042703 1.333434
0.303455 0.042718 1.333460
0.310332 0.042815 1.336026
0.316004 0.042746 1.333345
0.321390 0.042642 1.329525
0.328076 0.042711 1.331060
0.333884 0.042665 1.328976
0.339282 0.042569 1.325298
0.346194 0.042663 1.327484
0.351881 0.042606 1.324907
0.358930 0.042712 1.327377
0.366537 0.042881 1.331704
0.372829 0.042892 1.331101
0.378586 0.042843 1.328554
0.386022 0.042982 1.331789
0.393868 0.043161 1.336215
0.399556 0.043102 1.333196
0.406708 0.043201 1.334977
0.413338 0.043242 1.334907
0.422854 0.043579 1.343903
0.430744 0.043741 1.347418
0.438326 0.043868 1.349757
0.444979 0.043899 1.349089
0.452262 0.043991 1.350195
0.460929 0.044213 1.355208
0.474781 0.044919 1.374958
0.482312 0.045017 1.375951
0.490730 0.045193 1.379265
0.498045 0.045265 1.379286
0.506524 0.045439 1.382336
0.514136 0.045532 1.382818
0.522400 0.045680 1.384860
0.000000 0.000000 0.000000
0.561390 0.047880 1.446177
0.577687 0.048671 1.467181
0.586409 0.048811 1.468462
0.595313 0.048964 1.469987
0.605208 0.049194 1.473715
0.616704 0.049546 1.481019
0.622930 0.049473 1.475477
0.630248 0.049486 1.472475
0.637266 0.049476 1.468704
0.642762 0.049350 1.461424
0.654091 0.049669 1.467284
0.662466 0.049759 1.466316
0.671480 0.049895 1.466650
0.680255 0.050010 1.466354
0.689108 0.050129 1.466140
0.702204 0.050551 1.474772
0.000000 0.000000 0.000000
0.000000 0.000000 0.000000
0.000000 0.000000 0.000000
1.089834 0.075323 2.176379
0.000000 0.000000 0.000000
1.095783 0.074252 2.136040
1.102073 0.073955 2.123179
0.000000 0.000000 0.000000
1.082214 0.071241 2.037870
1.085390 0.070777 2.021421
0.000000 0.000000 0.000000
-1.905988 0.130422 3.239003
-1.855800 0.128094 3.179859
-1.855403 0.129192 3.206453
-1.867711 0.131202 3.256361
-1.866495 0.132289 3.284081
-1.864785 0.133361 3.312139
-1.863563 0.134487 3.342294
-1.862885 0.135674 3.374700
-1.863730 0.136994 3.411190
-1.863636 0.138270 3.447312
-1.856839 0.139068 3.472237
-1.859212 0.140574 3.515554
-1.867978 0.142597 3.572532
-1.863085 0.143607 3.604789
-1.853415 0.144265 3.628773
-1.845669 0.145087 3.657397
-1.852362 0.147072 3.715862
-1.861939 0.149329 3.781748
-1.859313 0.150643 3.824235
-1.855355 0.151875 3.865003
-1.853550 0.153311 3.911270
-1.849820 0.154616 3.954475
-1.855059 0.156707 4.018033
-1.843575 0.157415 4.046315
-1.832443 0.158168 4.075825
-1.846633 0.161148 4.162865
-1.848576 0.163114 4.223903
-1.833369 0.163594 4.246470
-1.844390 0.166451 4.330794
-1.845048 0.168429 4.392316
0.000000 0.000000 0.000000
-1.875189 0.175217 4.589605
0.000000 0.000000 0.000000
0.000000 0.000000 0.000000
0.000000 0.000000 0.000000
0.000000 0.000000 0.000000
0.000000 0.000000 0.000000
0.000000 0.000000 0.000000
0.000000 0.000000 0.000000
-1.871866 0.193124 5.136178
-1.886804 0.197233 5.253924
0.000000 0.000000 0.000000
-1.867389 0.200493 5.357008
-1.852346 0.201609 5.394529
-1.846178 0.203736 5.458894
-1.816693 0.203313 5.454704
-1.787564 0.202919 5.450938
-1.762113 0.202937 5.457935
-1.733775 0.202618 5.455568
-1.704035 0.202123 5.448158
-1.668009 0.200856 5.419610
-1.649981 0.201751 5.449108
-1.623784 0.201660 5.451717
-1.596744 0.201459 5.451111
-1.571234 0.201447 5.455377
-1.545950 0.201465 5.460191
-1.519509 0.201330 5.460627
-1.484499 0.200036 5.429365
-1.464877 0.200807 5.453907
-1.444469 0.201494 5.476020
-1.401709 0.199033 5.412312
-1.384372 0.200158 5.445893
-1.361787 0.200552 5.459411
-1.336149 0.200502 5.460680
-1.311755 0.200641 5.466900
-1.285852 0.200550 5.466682
-1.262899 0.200924 5.478994
-1.234693 0.200461 5.468307
-1.203998 0.199566 5.445667
-1.175644 0.199030 5.432642
-1.151010 0.199113 5.436391
-1.127134 0.199334 5.443773
-1.101611 0.199267 5.443164
-1.073702 0.198755 5.430277
-1.047079 0.198463 5.423265
-1.027343 0.199494 5.452294
-1.003467 0.199752 5.460113
-0.978522 0.199806 5.462230
-0.952906 0.199721 5.460485
-0.926149 0.199387 5.451804
-0.900729 0.199329 5.450625
-0.873112 0.198768 5.435591
-0.849269 0.199059 5.443771
-0.828157 0.200027 5.470404
-0.803003 0.200049 5.471103
-0.775151 0.199378 5.452800
-0.749149 0.199154 5.446661
-0.718430 0.197617 5.404567
-0.693673 0.197668 5.405870
-0.671219 0.198404 5.425851
-0.649422 0.199398 5.452871
-0.623411 0.199127 5.445251
-0.595970 0.198357 5.423960
-0.571478 0.198545 5.428821
-0.545807 0.198321 5.422415
-0.519907 0.197988 5.413016
-0.496975 0.198809 5.435159
-0.472038 0.198872 5.436577
0.000000 0.000000 0.000000
-0.418997 0.197528 5.399215
-0.395662 0.198326 5.420703
-0.369790 0.197874 5.408034
-0.346539 0.198860 5.434682
-0.321915 0.199150 5.442319
-0.296168 0.198737 5.430747
-0.271573 0.199092 5.440166
-0.247071 0.199594 5.453629
-0.218327 0.196394 5.365967
-0.190155 0.192955 5.271795
-0.164793 0.191775 5.239378
-0.140611 0.191799 5.239889
-0.115960 0.191062 5.219610
-0.091308 0.189934 5.188682
-0.067318 0.189872 5.186901
-0.043074 0.188627 5.152836
-0.019252 0.188435 5.147551
0.004530 0.188562 5.151002
0.028094 0.187029 5.109139
0.051905 0.187790 5.129986
0.000000 0.000000 0.000000
0.000000 0.000000 0.000000
0.000000 0.000000 0.000000
0.000000 0.000000 0.000000
0.000000 0.000000 0.000000
0.000000 0.000000 0.000000
0.000000 0.000000 0.000000
0.000000 0.000000 0.000000
0.259845 0.184012 5.028212
0.279678 0.181810 4.968294
0.000000 0.000000 0.000000
0.314073 0.175394 4.793463
0.330604 0.172471 4.713871
0.354443 0.173487 4.741899
0.377022 0.173803 4.750829
0.400887 0.174645 4.774126
0.423799 0.175006 4.784266
0.446339 0.175185 4.789438
0.468903 0.175356 4.794374
0.489873 0.174943 4.783323
0.513435 0.175451 4.797448
0.536641 0.175800 4.807214
0.000000 0.000000 0.000000
0.000000 0.000000 0.000000
0.172031 0.050138 1.371172
0.177159 0.049801 1.361982
0.183722 0.049877 1.364077
0.189884 0.049842 1.363138
0.196020 0.049803 1.362066
0.202277 0.049796 1.361868
0.208493 0.049780 1.361392
0.214190 0.049645 1.357640
0.219985 0.049539 1.354684
0.226233 0.049538 1.354576
0.232282 0.049495 1.353297
0.238523 0.049494 1.353143
0.244517 0.049443 1.351602
0.250442 0.049381 1.349739
0.255004 0.049060 1.340765
0.260576 0.048944 1.337365
0.266099 0.048824 1.333842
0.272265 0.048825 1.333587
0.278648 0.048864 1.334341
0.284946 0.048886 1.334617
0.290857 0.048843 1.333057
0.296929 0.048828 1.332234
0.303350 0.048870 1.332927
0.309881 0.048927 1.334009
0.315872 0.048899 1.332706
0.322210 0.048924 1.332831
0.328613 0.048958 1.333148
0.334339 0.048892 1.330694
0.341572 0.049045 1.334146
0.348036 0.049084 1.334445
0.353536 0.048988 1.331031
0.360351 0.049074 1.332519
0.366830 0.049112 1.332652
0.375001 0.049372 1.338735
0.382258 0.049505 1.341311
0.389460 0.049627 1.343520
0.400352 0.050207 1.358071
0.407474 0.050304 1.359469
0.415379 0.050494 1.363287
0.426252 0.051033 1.376456
0.431924 0.050942 1.372568
0.439165 0.051037 1.373590
0.446796 0.051173 1.375665
0.454497 0.051313 1.377763
0.462247 0.051455 1.379818
0.470477 0.051646 1.383088
0.477154 0.051663 1.381630
0.484522 0.051754 1.382049
0.493047 0.051964 1.385567
0.501199 0.052130 1.387805
0.509494 0.052306 1.390220
0.517235 0.052422 1.390923
0.532238 0.053261 1.410701
0.559623 0.055303 1.462113
0.570365 0.055671 1.469038
0.578957 0.055822 1.470143
0.587015 0.055918 1.469709
0.597152 0.056208 1.474253
0.608078 0.056565 1.480424
0.617012 0.056730 1.481474
0.626091 0.056904 1.482675
0.633815 0.056953 1.480515
0.640858 0.056940 1.476689
0.649917 0.057105 1.477398
0.659605 0.057321 1.479356
0.667556 0.057382 1.477287
0.672927 0.057223 1.469518
0.680897 0.057286 1.467447
0.687931 0.057270 1.463351
0.694436 0.057211 1.458176
0.000000 0.000000 0.000000
0.000000 0.000000 0.000000
0.000000 0.000000 0.000000
0.000000 0.000000 0.000000
1.105949 0.086611 2.181481
0.000000 0.000000 0.000000
0.000000 0.000000 0.000000
0.000000 0.000000 0.000000
0.000000 0.000000 0.000000
1.120800 0.083641 2.087152
0.000000 0.000000 0.000000
0.000000 0.000000 0.000000
-1.861170 0.144676 3.189136
-1.858337 0.145725 3.211549
-1.872090 0.148105 3.263969
-1.873117 0.149511 3.295652
-1.872329 0.150797 3.325401
-1.863964 0.151490 3.342820
-1.861952 0.152718 3.372757
-1.859553 0.153936 3.403237
-1.855356 0.155026 3.431630
-1.852624 0.156261 3.463932
-1.851329 0.157642 3.500170
-1.864617 0.160303 3.565567
-1.865932 0.161976 3.609708
-1.860815 0.163118 3.642624
-1.851458 0.163908 3.668189
-1.847935 0.165235 3.706259
-1.852515 0.167321 3.761844
-1.853197 0.169094 3.810856
-1.860555 0.171519 3.875000
-1.855501 0.172838 3.914526
-1.860965 0.175176 3.977412
-1.857309 0.176695 4.021998
-1.843614 0.177282 4.045482
-1.835102 0.178386 4.080812
-1.819115 0.178779 4.099900
-1.847533 0.183594 4.220564
-1.841873 0.185092 4.265208
-1.825678 0.185554 4.285904
-1.895798 0.194900 4.512137
-1.849509 0.192357 4.463270
-1.889200 0.198802 4.622907
-1.878347 0.200019 4.661097
0.000000 0.000000 0.000000
0.000000 0.000000 0.000000
0.000000 0.000000 0.000000
-1.906777 0.213222 5.008104
0.000000 0.000000 0.000000
0.000000 0.000000 0.000000
-1.872437 0.217560 5.136818
-1.878493 0.221143 5.229863
-1.886030 0.224998 5.329314
-1.872549 0.226417 5.370918
-1.858045 0.227749 5.410250
-1.847050 0.229554 5.460616
-1.814706 0.228719 5.447908
-1.786646 0.228408 5.447336
-1.761689 0.228491 5.455841
-1.736463 0.228540 5.463270
-1.706744 0.227991 5.456088
-1.687476 0.228842 5.482150
-1.660696 0.228686 5.483809
-1.630100 0.227990 5.472267
-1.599347 0.227250 5.459362
-1.572496 0.227050 5.459151
-1.549053 0.227343 5.470564
-1.521857 0.227086 5.468502
-1.500185 0.227659 5.486191
-1.473071 0.227411 5.483897
-1.449852 0.227767 5.495929
-1.407488 0.225073 5.434154
-1.385489 0.225598 5.449838
-1.364201 0.226259 5.468662
-1.340125 0.226475 5.476523
-1.312240 0.226043 5.468538
-1.282876 0.225334 5.453671
-1.258115 0.225422 5.457901
-1.236005 0.225997 5.473795
-1.205753 0.225077 5.453305
-1.176015 0.224216 5.434075
-1.153740 0.224771 5.449025
-1.128385 0.224737 5.449575
-1.100670 0.224221 5.438291
-1.072800 0.223648 5.425514
-1.050894 0.224321 5.442837
-1.028718 0.224969 5.459420
-1.005365 0.225384 5.470285
-0.978465 0.225006 5.461777
-0.951442 0.224578 5.451978
-0.925499 0.224390 5.447882
-0.900735 0.224484 5.450573
-0.876133 0.224625 5.454332
-0.849571 0.224258 5.445655
-0.826554 0.224832 5.459782
-0.799878 0.224416 5.449790
-0.776069 0.224803 5.459252
-0.746150 0.223387 5.424870
-0.720634 0.223236 5.421167
-0.695130 0.223079 5.417261
-0.673442 0.224180 5.443870
-0.649612 0.224626 5.454530
-0.624528 0.224657 5.455076
-0.597456 0.223945 5.437567
-0.572445 0.223977 5.438105
-0.546483 0.223623 5.429236
-0.522369 0.224028 5.438774
-0.493791 0.222462 5.400464
-0.470686 0.223326 5.421147
-0.445961 0.223475 5.424468
-0.420369 0.223183 5.417056
-0.395107 0.223039 5.413270
-0.371245 0.223720 5.429484
-0.346522 0.223943 5.434597
-0.322529 0.224709 5.452896
-0.297397 0.224744 5.453476
-0.270299 0.223163 5.414832
-0.245521 0.223370 5.419620
-0.218131 0.220978 5.361358
-0.193163 0.220740 5.355386
-0.167801 0.219917 5.335230
-0.141851 0.217907 5.286316
-0.117323 0.217700 5.281149
-0.092295 0.216214 5.244997
-0.068871 0.218765 5.306782
-0.044492 0.219420 5.322606
0.000000 0.000000 0.000000
0.004677 0.219277 5.319113
0.029008 0.217480 5.275519
0.051396 0.209411 5.079840
0.000000 0.000000 0.000000
0.000000 0.000000 0.000000
0.000000 0.000000 0.000000
0.144599 0.208467 5.057345
0.000000 0.000000 0.000000
0.190378 0.207444 5.032886
0.213217 0.207051 5.023544
0.000000 0.000000 0.000000
0.258793 0.206393 5.008035
0.281948 0.206415 5.008798
0.000000 0.000000 0.000000
0.316659 0.199153 4.833094
0.334559 0.196559 4.770414
0.355167 0.195778 4.751723
0.376969 0.195708 4.750296
0.399836 0.196168 4.761736
0.423516 0.196959 4.781192
0.447054 0.197608 4.797216
0.469757 0.197844 4.803205
0.492343 0.198012 4.807531
0.509078 0.195914 4.756818
0.532508 0.196459 4.770265
0.000000 0.000000 0.000000
0.000000 0.000000 0.000000
0.173447 0.056930 1.382467
0.179273 0.056755 1.378245
0.183411 0.056076 1.361767
0.189538 0.056029 1.360655
0.195559 0.055956 1.358861
0.201952 0.055990 1.359673
0.208079 0.055951 1.358677
0.213828 0.055815 1.355328
0.219647 0.055704 1.352583
0.225270 0.055552 1.348789
0.231067 0.055449 1.346191
0.236563 0.055282 1.341994
0.242399 0.055200 1.339864
0.248631 0.055210 1.339938
0.254670 0.055179 1.338966
0.259427 0.054877 1.331422
0.266013 0.054967 1.333359
0.272245 0.054982 1.333434
0.278689 0.055038 1.334476
0.284854 0.055037 1.334116
0.291058 0.055045 1.333906
0.297649 0.055123 1.335390
0.303885 0.055134 1.335197
0.310185 0.055155 1.335231
0.317478 0.055349 1.339393
0.322962 0.055227 1.335845
0.329871 0.055348 1.338152
0.338205 0.055699 1.345974
0.344670 0.055735 1.346131
0.351525 0.055832 1.347705
0.360906 0.056320 1.358653
0.368706 0.056548 1.363283
0.376284 0.056735 1.366859
0.384164 0.056961 1.371301
0.390935 0.057018 1.371608
0.397043 0.056977 1.369522
0.403831 0.057034 1.369712
0.410699 0.057101 1.370061
0.417605 0.057170 1.370419
0.426366 0.057488 1.376643
0.432683 0.057471 1.374793
0.439533 0.057525 1.374551
0.447182 0.057680 1.376654
0.454931 0.057844 1.378874
0.462114 0.057932 1.379206
0.470480 0.058163 1.382877
0.480282 0.058564 1.390460
0.488218 0.058729 1.392357
0.497413 0.059040 1.397593
0.504851 0.059136 1.397668
0.511909 0.059186 1.396555
0.521904 0.059570 1.403217
0.535326 0.060330 1.418616
0.560582 0.062389 1.464330
0.570364 0.062695 1.468742
0.579430 0.062917 1.471042
0.587226 0.062997 1.469931
0.595978 0.063177 1.471043
0.609238 0.063824 1.482929
0.621874 0.064392 1.492822
0.629359 0.064420 1.490084
0.637754 0.064539 1.489385
0.648462 0.064887 1.493872
0.659677 0.065277 1.499243
0.664209 0.065005 1.489344
0.670186 0.064878 1.482769
0.676418 0.064779 1.476808
0.683479 0.064760 1.472682
0.688833 0.064582 1.464945
0.000000 0.000000 0.000000
0.000000 0.000000 0.000000
0.000000 0.000000 0.000000
1.089013 0.097983 2.200955
0.000000 0.000000 0.000000
1.126318 0.099337 2.221256
1.138842 0.099458 2.219261
0.000000 0.000000 0.000000
1.086132 0.093034 2.067906
1.089336 0.092422 2.050773
0.000000 0.000000 0.000000
0.000000 0.000000 0.000000
-1.884560 0.161502 3.202852
-1.864850 0.161205 3.195528
-1.866663 0.162779 3.225970
-1.866932 0.164246 3.254951
-1.869563 0.165949 3.289313
-1.868738 0.167372 3.318875
-1.863595 0.168432 3.341949
-1.861548 0.169793 3.371752
-1.860798 0.171299 3.405174
-1.858411 0.172681 3.436875
-1.851938 0.173706 3.462182
-1.864384 0.176542 3.524318
-1.860983 0.177917 3.558022
-1.865293 0.180064 3.607817
-1.859106 0.181229 3.638572
-1.843710 0.181511 3.652083
-1.836568 0.182619 3.682662
-1.856519 0.186472 3.769123
-1.856563 0.188383 3.816885
-1.876441 0.192366 3.907148
-1.852880 0.191933 3.908038
-1.855025 0.194182 3.963728
-1.851645 0.195895 4.008722
-1.842640 0.197043 4.042319
-1.828092 0.197616 4.064188
-1.830187 0.200021 4.123806
-1.835617 0.202848 4.192283
-1.838406 0.205444 4.256109
-1.828319 0.206644 4.291032
0.000000 0.000000 0.000000
-1.860176 0.215145 4.487919
0.000000 0.000000 0.000000
0.000000 0.000000 0.000000
-1.863154 0.223296 4.687813
0.000000 0.000000 0.000000
-1.859926 0.228426 4.814493
0.000000 0.000000 0.000000
-1.897676 0.238977 5.055511
0.000000 0.000000 0.000000
0.000000 0.000000 0.000000
0.000000 0.000000 0.000000
0.000000 0.000000 0.000000
-1.879952 0.252782 5.391142
-1.865810 0.254326 5.431874
-1.842111 0.254593 5.445051
-1.816487 0.254597 5.452321
-1.786252 0.253945 5.445229
-1.761131 0.254012 5.453235
-1.736588 0.254166 5.462810
-1.710278 0.254062 5.466562
-1.686260 0.254301 5.477404
-1.664948 0.254961 5.497077
-1.635881 0.254436 5.490929
-1.603092 0.253306 5.471433
-1.575198 0.252925 5.467847
-1.549379 0.252870 5.471056
-1.527843 0.253525 5.489376
-1.502798 0.253609 5.495139
-1.475367 0.253287 5.491858
-1.437543 0.251137 5.448714
-1.417754 0.252118 5.473259
-1.387516 0.251243 5.457307
