# This PCD file was generated using the MATLAB® pcwrite function
# from Computer Vision Toolbox®.
# .PCD v.7 - Point Cloud Data file format
VERSION .7
FIELDS x y z
SIZE 4 4 4
TYPE F F F
COUNT 1 1 1
WIDTH 1732
HEIGHT 1
VIEWPOINT 0 0 0 1 0 0 0
POINTS 1732
DATA ascii
0.395194 -0.004661 0.887075
0.398218 -0.004645 0.881981
0.401116 -0.004629 0.876672
0.405456 -0.004629 0.874546
0.409917 -0.004631 0.872676
0.411777 -0.004604 0.865343
0.415054 -0.004593 0.861102
0.421254 -0.004614 0.862936
0.421187 -0.004566 0.852039
0.422927 -0.004540 0.845032
0.429002 -0.004559 0.846775
0.433076 -0.004558 0.844613
0.435453 -0.004538 0.839291
0.439741 -0.004539 0.837806
0.442559 -0.004524 0.833676
0.445729 -0.004514 0.830398
0.450424 -0.004519 0.830120
-0.372357 -0.000242 0.632692
-0.370859 -0.000244 0.635407
-0.368744 -0.000244 0.637240
-0.366230 -0.000245 0.638549
-0.363878 -0.000245 0.640306
-0.360679 -0.000245 0.640724
-0.361910 -0.000249 0.649232
-0.365130 -0.000253 0.661640
-0.365457 -0.000256 0.669131
-0.363203 -0.000256 0.672120
-0.360804 -0.000257 0.675007
-0.359011 -0.000258 0.679202
-0.355587 -0.000258 0.680453
-0.352536 -0.000259 0.682525
-0.350112 -0.000259 0.685932
-0.345444 -0.000258 0.685014
-0.342642 -0.000259 0.687847
-0.341641 -0.000261 0.694429
0.000000 0.000000 0.000000
0.000000 0.000000 0.000000
0.000000 0.000000 0.000000
0.000000 0.000000 0.000000
0.000000 0.000000 0.000000
0.000000 0.000000 0.000000
0.000000 0.000000 0.000000
0.000000 0.000000 0.000000
0.000000 0.000000 0.000000
0.000000 0.000000 0.000000
0.000000 0.000000 0.000000
0.000000 0.000000 0.000000
0.000000 0.000000 0.000000
0.000000 0.000000 0.000000
0.000000 0.000000 0.000000
0.000000 0.000000 0.000000
0.000000 0.000000 0.000000
0.000000 0.000000 0.000000
0.000000 0.000000 0.000000
0.000000 0.000000 0.000000
-0.801781 -0.000777 2.169568
-0.770408 -0.000756 2.115323
-0.741348 -0.000737 2.065675
-0.734322 -0.000740 2.076629
-0.717364 -0.000733 2.059183
-0.702018 -0.000727 2.045689
-0.684759 -0.000719 2.025915
-0.664929 -0.000708 1.997605
-0.648912 -0.000701 1.979852
-0.632409 -0.000693 1.959845
-0.612049 -0.000681 1.926883
-0.597898 -0.000675 1.912548
-0.583957 -0.000669 1.898268
-0.570795 -0.000664 1.885935
-0.555430 -0.000656 1.865636
-0.542574 -0.000651 1.853080
-0.533156 -0.000650 1.851895
-0.520665 -0.000646 1.839680
-0.508831 -0.000642 1.829268
-0.490516 -0.000629 1.794650
-0.482469 -0.000629 1.796912
-0.473281 -0.000628 1.794814
-0.463239 -0.000626 1.789235
-0.448976 -0.000618 1.766730
-0.437358 -0.000613 1.753869
-0.426898 -0.000610 1.745153
-0.413920 -0.000602 1.725503
-0.398586 -0.000592 1.694963
-0.390002 -0.000590 1.692381
-0.380149 -0.000587 1.683994
-0.371046 -0.000585 1.678573
-0.360145 -0.000580 1.664536
-0.346687 -0.000571 1.637740
-0.338412 -0.000570 1.634707
-0.330374 -0.000569 1.632648
-0.319715 -0.000563 1.617185
-0.311513 -0.000562 1.613652
-0.305267 -0.000564 1.620281
-0.294083 -0.000557 1.600335
-0.284192 -0.000552 1.586528
-0.277265 -0.000553 1.588940
-0.269491 -0.000552 1.586467
-0.258329 -0.000544 1.563317
-0.244123 -0.000529 1.519857
-0.238924 -0.000533 1.531536
-0.230844 -0.000531 1.524871
-0.223091 -0.000529 1.519998
-0.213877 -0.000523 1.504516
-0.206221 -0.000522 1.499302
-0.198712 -0.000520 1.494831
-0.190177 -0.000516 1.482025
-0.182436 -0.000513 1.474680
-0.175096 -0.000512 1.470122
-0.167351 -0.000509 1.461663
-0.161281 -0.000511 1.467734
-0.153965 -0.000509 1.462503
-0.146388 -0.000506 1.454197
-0.138110 -0.000500 1.437812
-0.130489 -0.000497 1.426953
-0.122951 -0.000493 1.415911
-0.115383 -0.000489 1.403275
-0.108329 -0.000486 1.395772
-0.101482 -0.000484 1.390164
-0.094891 -0.000483 1.387573
-0.087857 -0.000480 1.377656
-0.081091 -0.000477 1.370745
-0.074945 -0.000479 1.374051
-0.068122 -0.000475 1.364428
-0.061254 -0.000471 1.351871
-0.054678 -0.000468 1.343642
0.000000 0.000000 0.000000
0.000000 0.000000 0.000000
0.000000 0.000000 0.000000
0.000000 0.000000 0.000000
0.000000 0.000000 0.000000
0.000000 0.000000 0.000000
0.000000 0.000000 0.000000
0.000000 0.000000 0.000000
0.000000 0.000000 0.000000
0.006374 -0.000404 1.159003
0.000000 0.000000 0.000000
0.000000 0.000000 0.000000
0.000000 0.000000 0.000000
0.000000 0.000000 0.000000
0.000000 0.000000 0.000000
0.000000 0.000000 0.000000
0.046021 -0.000424 1.216391
0.000000 0.000000 0.000000
0.000000 0.000000 0.000000
0.062569 -0.000422 1.210584
0.067151 -0.000415 1.192725
0.073526 -0.000420 1.207019
0.078710 -0.000418 1.201142
0.084408 -0.000419 1.203374
0.089106 -0.000415 1.191960
0.094279 -0.000414 1.187867
0.099499 -0.000412 1.184793
0.104816 -0.000412 1.183147
0.109650 -0.000410 1.176490
0.115125 -0.000410 1.177017
0.120474 -0.000409 1.176261
0.125157 -0.000407 1.169363
0.130010 -0.000405 1.164555
0.134398 -0.000402 1.156121
0.138829 -0.000400 1.148692
0.144539 -0.000401 1.152006
0.149668 -0.000400 1.150601
0.153675 -0.000397 1.140964
0.157383 -0.000393 1.129812
0.161972 -0.000392 1.125485
0.166924 -0.000391 1.123857
0.171308 -0.000389 1.118610
0.176219 -0.000389 1.116998
0.180595 -0.000387 1.112164
0.184825 -0.000385 1.106708
0.188432 -0.000382 1.097896
0.192720 -0.000381 1.093385
0.197246 -0.000380 1.090404
0.201058 -0.000377 1.083698
0.204958 -0.000375 1.077755
0.209126 -0.000374 1.073442
0.213573 -0.000373 1.070702
0.218720 -0.000373 1.071482
0.223235 -0.000373 1.069166
0.225937 -0.000369 1.058422
0.229391 -0.000367 1.051548
0.233972 -0.000366 1.049980
0.238207 -0.000365 1.046917
0.242417 -0.000364 1.043824
0.246440 -0.000363 1.040020
0.250731 -0.000362 1.037428
0.255264 -0.000362 1.035868
0.258106 -0.000359 1.027581
0.260615 -0.000356 1.018246
0.264390 -0.000355 1.014057
0.268333 -0.000354 1.010587
0.273098 -0.000354 1.010227
0.276789 -0.000353 1.005913
0.280280 -0.000351 1.000970
0.284753 -0.000351 0.999574
0.288972 -0.000350 0.997282
0.292362 -0.000349 0.992180
0.296402 -0.000348 0.989339
0.297430 -0.000344 0.976631
0.302199 -0.000344 0.976335
0.307433 -0.000345 0.977450
0.309880 -0.000343 0.969725
0.312401 -0.000340 0.962384
0.316256 -0.000340 0.959229
0.320798 -0.000340 0.958136
0.325319 -0.000340 0.956921
0.329498 -0.000339 0.954662
0.333889 -0.000339 0.952979
0.336245 -0.000337 0.945526
0.338923 -0.000335 0.939084
0.341671 -0.000334 0.932923
0.346396 -0.000334 0.932156
0.350953 -0.000334 0.930864
0.355154 -0.000334 0.928574
0.358653 -0.000333 0.924436
0.361614 -0.000332 0.918939
0.364192 -0.000330 0.912533
0.368180 -0.000330 0.909682
0.372897 -0.000330 0.908579
0.376916 -0.000330 0.905728
0.380520 -0.000329 0.901869
0.382378 -0.000327 0.893932
0.387370 -0.000328 0.893341
0.391684 -0.000327 0.891131
0.394989 -0.000327 0.886628
0.398524 -0.000326 0.882672
0.402057 -0.000325 0.878741
0.404673 -0.000324 0.872870
0.407129 -0.000323 0.866753
0.410153 -0.000322 0.861943
0.413511 -0.000321 0.857914
0.416663 -0.000320 0.853544
0.418315 -0.000318 0.846242
0.422263 -0.000318 0.843716
0.428706 -0.000319 0.846200
0.432087 -0.000319 0.842695
0.434031 -0.000317 0.836559
0.438848 -0.000318 0.836112
0.443432 -0.000318 0.835328
0.447301 -0.000318 0.833332
0.452150 -0.000318 0.833308
-0.371621 0.002967 0.631442
-0.370620 0.002985 0.634997
-0.368076 0.002990 0.636085
-0.365897 0.002999 0.637969
-0.363044 0.003002 0.638836
-0.361654 0.003018 0.642456
-0.360652 0.003037 0.646972
-0.365132 0.003103 0.661641
-0.364817 0.003129 0.667956
-0.363195 0.003144 0.672100
-0.360435 0.003150 0.674312
-0.358368 0.003161 0.677980
-0.354833 0.003160 0.679003
-0.353250 0.003177 0.683901
-0.349383 0.003173 0.684497
-0.345847 0.003172 0.685807
-0.342565 0.003173 0.687686
-0.343186 0.003211 0.697563
0.000000 0.000000 0.000000
0.000000 0.000000 0.000000
0.000000 0.000000 0.000000
0.000000 0.000000 0.000000
0.000000 0.000000 0.000000
0.000000 0.000000 0.000000
0.000000 0.000000 0.000000
0.000000 0.000000 0.000000
0.000000 0.000000 0.000000
0.000000 0.000000 0.000000
0.000000 0.000000 0.000000
0.000000 0.000000 0.000000
0.000000 0.000000 0.000000
0.000000 0.000000 0.000000
0.000000 0.000000 0.000000
0.000000 0.000000 0.000000
0.000000 0.000000 0.000000
0.000000 0.000000 0.000000
-0.818240 0.009479 2.151032
0.000000 0.000000 0.000000
0.000000 0.000000 0.000000
-0.776175 0.009343 2.131137
-0.753558 0.009191 2.099677
-0.733358 0.009064 2.073883
-0.717452 0.008987 2.059417
-0.701806 0.008912 2.045054
-0.683582 0.008802 2.022418
-0.666968 0.008709 2.003714
-0.648772 0.008593 1.979409
-0.627832 0.008436 1.945647
-0.605485 0.008256 1.906206
-0.593835 0.008218 1.899541
-0.586178 0.008235 1.905477
-0.573769 0.008186 1.895748
-0.557328 0.008076 1.872001
-0.543455 0.008000 1.856076
-0.531203 0.007946 1.845102
-0.521452 0.007929 1.842450
-0.503973 0.007791 1.811792
-0.496647 0.007808 1.817071
-0.484084 0.007742 1.802919
-0.475364 0.007737 1.802706
-0.462032 0.007654 1.784565
-0.448319 0.007563 1.764135
-0.438084 0.007527 1.756778
-0.424718 0.007436 1.736236
-0.414328 0.007394 1.727198
-0.403928 0.007350 1.717672
-0.392605 0.007288 1.703672
-0.386732 0.007326 1.713152
-0.372259 0.007199 1.684057
-0.359508 0.007101 1.661589
-0.350396 0.007072 1.655257
-0.340181 0.007019 1.643249
-0.330177 0.006968 1.631671
-0.319810 0.006907 1.617663
-0.311866 0.006897 1.615481
-0.302051 0.006843 1.603211
-0.295512 0.006863 1.608107
-0.285813 0.006809 1.595578
-0.276359 0.006758 1.583748
-0.266933 0.006705 1.571407
-0.256831 0.006631 1.554250
-0.247756 0.006581 1.542473
-0.238795 0.006530 1.530707
-0.232297 0.006546 1.534467
-0.223765 0.006504 1.524594
-0.214744 0.006444 1.510613
-0.206745 0.006412 1.503112
-0.197288 0.006332 1.484118
-0.189657 0.006306 1.477973
-0.181914 0.006274 1.470456
-0.174247 0.006242 1.462996
-0.167508 0.006243 1.463037
-0.160499 0.006233 1.460618
-0.153410 0.006218 1.457230
-0.146242 0.006200 1.452752
-0.138401 0.006149 1.440837
-0.129706 0.006054 1.418396
-0.121819 0.005988 1.402874
-0.114824 0.005961 1.396477
-0.108572 0.005972 1.398908
-0.102262 0.005981 1.400854
-0.095241 0.005946 1.392683
-0.088430 0.005921 1.386642
-0.081716 0.005898 1.381315
-0.074963 0.005869 1.374390
-0.068066 0.005822 1.363302
-0.060844 0.005735 1.342824
-0.054396 0.005709 1.336721
0.000000 0.000000 0.000000
-0.033405 0.004536 1.061893
-0.028574 0.004548 1.064650
-0.023782 0.004572 1.070319
-0.019016 0.004615 1.080404
-0.014150 0.004656 1.090069
-0.009173 0.004687 1.097131
0.000000 0.000000 0.000000
0.000969 0.004704 1.101161
0.000000 0.000000 0.000000
0.011220 0.004736 1.108709
0.016530 0.004791 1.121477
0.021865 0.004824 1.129436
0.027240 0.004852 1.136025
0.032407 0.004840 1.133193
0.037827 0.004864 1.138804
0.043346 0.004893 1.145677
0.048695 0.004899 1.147064
0.054159 0.004914 1.150635
0.060481 0.004997 1.170184
0.066239 0.005024 1.176529
0.071392 0.005004 1.171993
0.076460 0.004982 1.166808
0.082413 0.005016 1.174925
0.088253 0.005040 1.180553
0.093293 0.005018 1.175448
0.098771 0.005020 1.176128
0.104313 0.005026 1.177474
0.109791 0.005028 1.178002
0.115167 0.005025 1.177440
0.120171 0.005007 1.173303
0.124815 0.004976 1.166169
0.130374 0.004983 1.167813
0.134115 0.004923 1.153689
0.138845 0.004902 1.148829
0.144501 0.004914 1.151699
0.149791 0.004913 1.151550
0.153280 0.004855 1.138032
0.157141 0.004812 1.128072
0.161491 0.004787 1.122144
0.166597 0.004785 1.121659
0.171482 0.004777 1.119749
0.175523 0.004747 1.112586
0.179881 0.004726 1.107768
0.184505 0.004714 1.104787
0.189393 0.004709 1.103493
0.193967 0.004696 1.100464
0.196873 0.004645 1.088339
0.200662 0.004616 1.081559
0.204179 0.004583 1.073658
0.208712 0.004574 1.071315
0.213669 0.004574 1.071178
0.218152 0.004564 1.068697
0.223280 0.004568 1.069377
0.227862 0.004561 1.067436
0.231553 0.004537 1.061453
0.234487 0.004499 1.052288
0.238381 0.004481 1.047676
0.242345 0.004464 1.043514
0.246096 0.004445 1.038566
0.249939 0.004428 1.034147
0.252883 0.004396 1.026200
0.256686 0.004380 1.021923
0.259831 0.004353 1.015178
0.263200 0.004331 1.009487
0.267554 0.004326 1.007651
0.272887 0.004336 1.009444
0.277406 0.004333 1.008149
0.280990 0.004316 1.003498
0.285377 0.004312 1.001760
0.289380 0.004302 0.998682
0.290042 0.004244 0.984301
0.294947 0.004248 0.984478
0.298683 0.004236 0.980737
0.302481 0.004225 0.977240
0.306801 0.004222 0.975432
0.310197 0.004206 0.970708
0.313216 0.004186 0.964886
0.317065 0.004177 0.961675
0.320854 0.004167 0.958295
0.324863 0.004161 0.955572
0.330138 0.004171 0.956509
0.334956 0.004174 0.956016
0.338128 0.004158 0.950811
0.339377 0.004118 0.940333
0.342541 0.004103 0.935290
0.346616 0.004099 0.932740
0.351196 0.004100 0.931501
0.354667 0.004089 0.927292
0.357018 0.004066 0.920213
0.360499 0.004055 0.916097
0.364805 0.004055 0.914060
0.368317 0.004045 0.910009
0.372859 0.004047 0.908477
0.377324 0.004048 0.906700
0.378598 0.004015 0.897304
0.381567 0.004000 0.892027
0.386047 0.004002 0.890280
0.391433 0.004013 0.890550
0.396147 0.004017 0.889218
0.398549 0.003997 0.882717
0.401697 0.003985 0.877945
0.403789 0.003964 0.870955
0.406564 0.003949 0.865541
0.410562 0.003946 0.862792
0.413319 0.003932 0.857506
0.415420 0.003912 0.850989
0.421181 0.003926 0.852032
0.425690 0.003928 0.850555
0.427661 0.003908 0.844131
0.430353 0.003894 0.839306
0.432384 0.003874 0.833378
0.437315 0.003881 0.833187
0.443865 0.003901 0.836137
0.448541 0.003905 0.835637
0.458948 0.003959 0.845832
-0.372755 0.006195 0.633374
-0.370510 0.006211 0.634812
-0.367924 0.006222 0.635823
-0.365266 0.006232 0.636867
-0.363618 0.006259 0.639843
-0.360288 0.006258 0.640024
-0.360797 0.006324 0.647226
-0.363203 0.006424 0.658137
-0.362566 0.006472 0.663823
-0.361284 0.006510 0.668552
-0.361361 0.006573 0.676030
-0.358810 0.006589 0.678800
-0.355529 0.006591 0.680319
-0.353021 0.006609 0.683440
-0.350128 0.006619 0.685937
-0.345654 0.006599 0.685401
-0.344197 0.006637 0.690940
-0.335738 0.006539 0.682400
0.000000 0.000000 0.000000
0.000000 0.000000 0.000000
0.000000 0.000000 0.000000
0.000000 0.000000 0.000000
0.000000 0.000000 0.000000
0.000000 0.000000 0.000000
0.000000 0.000000 0.000000
0.000000 0.000000 0.000000
0.000000 0.000000 0.000000
0.000000 0.000000 0.000000
0.000000 0.000000 0.000000
0.000000 0.000000 0.000000
0.000000 0.000000 0.000000
0.000000 0.000000 0.000000
0.000000 0.000000 0.000000
0.000000 0.000000 0.000000
0.000000 0.000000 0.000000
0.000000 0.000000 0.000000
0.000000 0.000000 0.000000
0.000000 0.000000 0.000000
0.000000 0.000000 0.000000
-0.772998 0.019369 2.122349
-0.751943 0.019090 2.095115
-0.735331 0.018917 2.079403
-0.717763 0.018716 2.060252
-0.694577 0.018360 2.023934
-0.685631 0.018376 2.028427
-0.663335 0.018029 1.992749
-0.648241 0.017871 1.977741
-0.622864 0.017421 1.930205
-0.605878 0.017196 1.907396
-0.592312 0.017063 1.894626
-0.583040 0.017051 1.895233
-0.574477 0.017060 1.898049
-0.560222 0.016897 1.881683
-0.543892 0.016666 1.857534
-0.531828 0.016560 1.847239
-0.521745 0.016513 1.843451
-0.511290 0.016453 1.838065
-0.486520 0.015922 1.779992
-0.486532 0.016198 1.812006
-0.474180 0.016064 1.798187
-0.458229 0.015802 1.769850
-0.447282 0.015706 1.760031
-0.436177 0.015601 1.749107
-0.425686 0.015514 1.740174
-0.417270 0.015500 1.739444
-0.406152 0.015384 1.727114
-0.397378 0.015354 1.724368
-0.383732 0.015131 1.699847
-0.372383 0.014990 1.684604
-0.360809 0.014835 1.667589
-0.350287 0.014717 1.654728
-0.340792 0.014637 1.646188
-0.329643 0.014481 1.629023
-0.320134 0.014392 1.619290
-0.309690 0.014256 1.604201
-0.300638 0.014178 1.595703
-0.293345 0.014182 1.596309
-0.285751 0.014171 1.595227
-0.276648 0.014082 1.585397
-0.267322 0.013977 1.573694
-0.257530 0.013841 1.558478
-0.249117 0.013773 1.550947
-0.242155 0.013785 1.552246
-0.233661 0.013706 1.543476
-0.224734 0.013597 1.531193
-0.215056 0.013434 1.512807
-0.205394 0.013261 1.493293
-0.198745 0.013277 1.495075
-0.189538 0.013117 1.477051
-0.181640 0.013039 1.468246
-0.174226 0.012992 1.462821
-0.166743 0.012935 1.456360
-0.159964 0.012930 1.455756
-0.153158 0.012923 1.454844
-0.145798 0.012866 1.448348
-0.137819 0.012746 1.434786
-0.129278 0.012560 1.413724
-0.121481 0.012430 1.398989
-0.115033 0.012431 1.399026
-0.109577 0.012546 1.411864
-0.102342 0.012459 1.401956
-0.095404 0.012398 1.395081
-0.088689 0.012360 1.390707
-0.081622 0.012263 1.379735
-0.074588 0.012155 1.367519
-0.067556 0.012028 1.353098
-0.060574 0.011884 1.336871
0.000000 0.000000 0.000000
-0.038312 0.009442 1.061996
-0.033308 0.009414 1.058844
-0.028364 0.009396 1.056848
-0.023547 0.009422 1.059737
-0.018818 0.009507 1.069171
-0.014097 0.009657 1.086026
-0.009101 0.009679 1.088570
-0.004074 0.009685 1.089201
0.000960 0.009704 1.091356
0.006024 0.009740 1.095342
0.011152 0.009799 1.102054
0.016261 0.009809 1.103212
0.021588 0.009915 1.115138
0.026821 0.009945 1.118535
0.032023 0.009956 1.119809
0.037379 0.010005 1.125342
0.042743 0.010044 1.129771
0.048318 0.010118 1.138193
0.053856 0.010171 1.144207
0.059453 0.010225 1.150308
0.064915 0.010249 1.153015
0.070421 0.010275 1.156062
0.075965 0.010303 1.159252
0.081669 0.010347 1.164326
0.087159 0.010361 1.165926
0.092599 0.010367 1.166717
0.098051 0.010374 1.167568
0.103769 0.010407 1.171341
0.109458 0.010434 1.174432
0.115098 0.010454 1.176739
0.119844 0.010394 1.170115
0.124551 0.010337 1.163706
0.129332 0.010290 1.158483
0.134803 0.010299 1.159617
0.139233 0.010232 1.152045
0.144286 0.010213 1.149992
0.148946 0.010169 1.145059
0.153064 0.010092 1.136431
0.156460 0.009974 1.123183
0.160939 0.009931 1.118303
0.166263 0.009941 1.119410
0.171095 0.009921 1.117218
0.175351 0.009871 1.111490
0.179466 0.009815 1.105211
0.184418 0.009807 1.104268
0.189308 0.009797 1.102995
0.194035 0.009778 1.100843
0.197541 0.009701 1.092030
0.200687 0.009610 1.081693
0.204396 0.009550 1.074794
0.208866 0.009528 1.072100
0.213932 0.009533 1.072493
0.218286 0.009507 1.069343
0.222493 0.009476 1.065602
0.228108 0.009504 1.068580
0.231873 0.009457 1.062915
0.234459 0.009364 1.052152
0.238211 0.009320 1.046921
0.242544 0.009301 1.044358
0.246446 0.009266 1.040032
0.249553 0.009203 1.032540
0.252295 0.009129 1.023803
0.256011 0.009092 1.019221
0.262003 0.009137 1.023651
0.262962 0.009007 1.008558
0.268006 0.009019 1.009338
0.273570 0.009048 1.011953
0.277550 0.009025 1.008656
0.281825 0.009011 1.006466
0.286066 0.008997 1.004158
0.286184 0.008856 0.987636
0.290838 0.008858 0.986982
0.295670 0.008865 0.986872
0.299454 0.008841 0.983247
0.303403 0.008822 0.980198
0.307374 0.008804 0.977232
0.310422 0.008761 0.971390
0.313394 0.008717 0.965411
0.317937 0.008718 0.964298
0.321749 0.008698 0.960944
0.324723 0.008657 0.955134
0.329571 0.008666 0.954837
0.334162 0.008669 0.953721
0.337807 0.008647 0.949883
0.340760 0.008608 0.944138
0.343389 0.008562 0.937576
0.346890 0.008538 0.933449
0.350568 0.008520 0.929805
0.353765 0.008490 0.924905
0.357737 0.008480 0.922035
0.360831 0.008449 0.916908
0.364968 0.008443 0.914436
0.368577 0.008426 0.910620
0.372488 0.008415 0.907540
0.375854 0.008393 0.903134
0.379727 0.008382 0.899947
0.382146 0.008340 0.893347
0.386511 0.008340 0.891318
0.390965 0.008343 0.889453
0.394812 0.008333 0.886187
0.400601 0.008363 0.887228
0.402952 0.008322 0.880655
0.404920 0.008274 0.873359
0.406879 0.008226 0.866179
0.410715 0.008218 0.863082
0.414001 0.008198 0.858890
0.416676 0.008167 0.853530
0.420604 0.008161 0.850834
0.425975 0.008183 0.851096
0.428427 0.008148 0.845615
0.429807 0.008095 0.838215
0.431774 0.008053 0.832180
0.436367 0.008061 0.831358
0.441738 0.008082 0.832111
0.447015 0.008102 0.832778
0.450569 0.008090 0.830375
-0.372973 0.009419 0.633750
-0.370143 0.009429 0.634187
-0.367604 0.009446 0.635271
-0.365863 0.009485 0.637906
-0.363337 0.009504 0.639343
-0.361037 0.009529 0.641346
-0.362873 0.009664 0.650938
-0.363480 0.009770 0.658623
-0.361192 0.009798 0.661289
-0.359738 0.009850 0.665669
-0.363634 0.010051 0.680257
-0.361279 0.010081 0.683443
-0.355594 0.010018 0.680412
-0.349262 0.009935 0.676129
-0.348625 0.010015 0.682958
-0.347490 0.010081 0.689006
-0.343371 0.010061 0.689243
-0.335174 0.009921 0.681213
0.000000 0.000000 0.000000
0.000000 0.000000 0.000000
0.000000 0.000000 0.000000
0.000000 0.000000 0.000000
0.000000 0.000000 0.000000
0.000000 0.000000 0.000000
0.000000 0.000000 0.000000
0.000000 0.000000 0.000000
0.000000 0.000000 0.000000
0.000000 0.000000 0.000000
0.000000 0.000000 0.000000
0.000000 0.000000 0.000000
0.000000 0.000000 0.000000
0.000000 0.000000 0.000000
0.000000 0.000000 0.000000
0.000000 0.000000 0.000000
0.000000 0.000000 0.000000
0.000000 0.000000 0.000000
-0.813025 0.029793 2.137135
-0.796794 0.029569 2.124848
-0.779474 0.029298 2.109011
-0.763738 0.029080 2.096818
-0.747329 0.028831 2.082158
-0.732278 0.028627 2.070669
-0.704671 0.027921 2.022578
-0.693188 0.027844 2.019794
-0.674281 0.027461 1.994758
-0.659692 0.027247 1.981721
-0.645554 0.027045 1.969462
-0.626483 0.026627 1.941342
-0.615835 0.026561 1.938667
-0.594529 0.026025 1.901644
-0.580895 0.025815 1.888192
-0.572181 0.025820 1.890396
-0.560171 0.025674 1.881449
-0.546068 0.025426 1.864905
-0.529026 0.025031 1.837448
-0.522138 0.025112 1.844786
-0.508724 0.024876 1.828789
-0.495981 0.024665 1.814554
-0.485288 0.024551 1.807325
-0.473621 0.024382 1.796025
-0.456762 0.023936 1.764143
-0.444210 0.023703 1.747902
-0.437181 0.023761 1.753095
-0.428293 0.023719 1.750793
-0.417900 0.023590 1.742037
-0.408324 0.023503 1.736318
-0.392937 0.023071 1.705064
-0.381915 0.022884 1.691770
-0.372130 0.022764 1.683431
-0.361839 0.022607 1.672323
-0.350969 0.022407 1.657929
-0.337333 0.022017 1.629462
-0.328331 0.021918 1.622523
-0.319924 0.021856 1.618212
-0.309179 0.021627 1.601539
-0.299639 0.021473 1.590386
-0.291212 0.021394 1.584688
-0.283516 0.021365 1.582740
-0.275259 0.021291 1.577429
-0.268030 0.021295 1.577852
-0.260532 0.021278 1.576639
-0.250021 0.021006 1.556566
-0.242727 0.020996 1.555909
-0.235490 0.020991 1.555560
-0.224956 0.020683 1.532701
-0.214851 0.020395 1.511371
-0.205808 0.020192 1.496308
-0.197962 0.020096 1.489193
-0.189939 0.019975 1.480175
-0.182395 0.019897 1.474353
-0.174658 0.019791 1.466459
-0.166250 0.019598 1.452058
-0.159840 0.019634 1.454632
-0.153102 0.019630 1.454320
-0.145840 0.019557 1.448769
-0.137015 0.019256 1.426428
-0.129628 0.019138 1.417557
-0.122358 0.019025 1.409106
-0.116187 0.019080 1.413082
-0.109245 0.019007 1.407601
-0.101702 0.018814 1.393201
-0.094806 0.018722 1.386346
-0.087880 0.018611 1.378035
-0.080919 0.018475 1.367863
-0.074216 0.018379 1.360708
-0.067398 0.018235 1.349952
0.000000 0.000000 0.000000
0.000000 0.000000 0.000000
-0.038277 0.014334 1.061043
-0.033169 0.014245 1.054408
-0.028222 0.014207 1.051556
-0.023366 0.014208 1.051602
-0.018584 0.014267 1.055920
-0.013959 0.014530 1.075393
-0.008999 0.014544 1.076371
-0.004060 0.014666 1.085390
0.000953 0.014637 1.083253
0.005973 0.014675 1.086110
0.011044 0.014746 1.091367
0.016238 0.014885 1.101686
0.021507 0.015011 1.110991
0.026630 0.015005 1.110602
0.031789 0.015019 1.111633
0.037017 0.015056 1.114443
0.042350 0.015122 1.119379
0.047930 0.015253 1.129080
0.053370 0.015317 1.133899
0.058925 0.015400 1.140106
0.064152 0.015391 1.139478
0.069862 0.015490 1.146887
0.075274 0.015514 1.148728
0.080931 0.015582 1.153816
0.086557 0.015635 1.157881
0.091972 0.015647 1.158816
0.097460 0.015669 1.160533
0.103284 0.015740 1.165875
0.108984 0.015786 1.169359
0.114484 0.015800 1.170471
0.120331 0.015859 1.174887
0.125309 0.015803 1.170791
0.129081 0.015606 1.156241
0.134450 0.015610 1.156582
0.139540 0.015582 1.154585
0.143800 0.015467 1.146118
0.148285 0.015384 1.139973
0.152078 0.015237 1.129109
0.155962 0.015108 1.119609
0.160781 0.015076 1.117209
0.166220 0.015102 1.119115
0.171303 0.015094 1.118574
0.176034 0.015058 1.115822
0.179127 0.014887 1.103119
0.183771 0.014851 1.100385
0.189027 0.014865 1.101349
0.193906 0.014849 1.100107
0.197556 0.014743 1.092103
0.201835 0.014687 1.087872
0.205921 0.014621 1.082805
0.210122 0.014565 1.078539
0.214115 0.014499 1.073398
0.218576 0.014466 1.070755
0.222268 0.014385 1.064510
0.226282 0.014327 1.060013
0.229756 0.014239 1.053193
0.234215 0.014214 1.051042
0.238094 0.014156 1.046389
0.242572 0.014135 1.044462
0.246336 0.014074 1.039550
0.249800 0.013998 1.033540
0.252833 0.013902 1.025963
0.257450 0.013894 1.024928
0.261464 0.013855 1.021520
0.265380 0.013812 1.017809
0.269193 0.013766 1.013784
0.273467 0.013744 1.011544
0.277501 0.013711 1.008450
0.281277 0.013667 1.004479
0.284760 0.013610 0.999545
0.286698 0.013482 0.989378
0.292164 0.013522 0.991449
0.296271 0.013498 0.988844
0.300233 0.013469 0.985770
0.304490 0.013454 0.983674
0.308061 0.013409 0.979379
0.311044 0.013340 0.973299
0.313835 0.013265 0.966730
0.319080 0.013295 0.967724
0.323293 0.013281 0.965512
0.325396 0.013182 0.957071
0.328953 0.013145 0.953005
0.333357 0.013141 0.951379
0.337235 0.013117 0.948226
0.340631 0.013075 0.943734
0.343466 0.013013 0.937737
0.346882 0.012975 0.933377
0.350173 0.012932 0.928706
0.353702 0.012900 0.924688
0.357693 0.012885 0.921870
0.361740 0.012872 0.919166
0.364975 0.012831 0.914399
0.368514 0.012801 0.910409
0.370949 0.012735 0.903736
0.374895 0.012721 0.900772
0.379596 0.012733 0.899578
0.384308 0.012745 0.898342
0.387356 0.012702 0.893208
0.390678 0.012668 0.888740
0.394604 0.012655 0.885663
0.399454 0.012672 0.884630
0.404538 0.012696 0.884064
0.406587 0.012624 0.876899
0.408072 0.012537 0.868663
0.410732 0.012488 0.863063
0.414236 0.012465 0.859325
0.418045 0.012451 0.856284
0.421572 0.012430 0.852743
0.424214 0.012383 0.847530
0.427644 0.012360 0.844025
0.430715 0.012327 0.839946
0.433637 0.012290 0.835730
0.436801 0.012261 0.832150
0.440417 0.012245 0.829590
0.445349 0.012265 0.829645
0.444585 0.012130 0.819322
-0.370322 0.012550 0.629255
-0.369965 0.012647 0.633887
-0.368322 0.012701 0.636514
-0.366386 0.012746 0.638813
-0.363908 0.012773 0.640342
-0.361074 0.012788 0.641401
-0.365973 0.013080 0.656482
-0.364828 0.013159 0.661045
-0.363412 0.013229 0.665327
-0.361745 0.013292 0.669353
-0.361418 0.013405 0.676077
-0.361094 0.013521 0.683054
-0.354316 0.013395 0.677925
-0.350010 0.013361 0.677532
-0.348167 0.013421 0.682011
-0.346878 0.013504 0.687739
-0.342894 0.013483 0.688229
-0.338445 0.013443 0.687804
0.000000 0.000000 0.000000
0.000000 0.000000 0.000000
0.000000 0.000000 0.000000
0.000000 0.000000 0.000000
0.000000 0.000000 0.000000
0.000000 0.000000 0.000000
0.000000 0.000000 0.000000
0.000000 0.000000 0.000000
0.000000 0.000000 0.000000
0.000000 0.000000 0.000000
0.000000 0.000000 0.000000
0.000000 0.000000 0.000000
0.000000 0.000000 0.000000
0.000000 0.000000 0.000000
0.000000 0.000000 0.000000
0.000000 0.000000 0.000000
0.000000 0.000000 0.000000
0.000000 0.000000 0.000000
-0.809873 0.039825 2.128683
0.000000 0.000000 0.000000
0.000000 0.000000 0.000000
-0.762388 0.038954 2.092959
-0.746129 0.038626 2.078665
-0.729142 0.038252 2.061661
-0.706951 0.037590 2.028988
-0.685498 0.036950 1.997257
-0.673807 0.036825 1.993229
-0.660697 0.036619 1.984618
-0.640270 0.035995 1.953223
-0.632837 0.036094 1.960921
-0.614471 0.035563 1.934266
-0.597525 0.035100 1.911127
-0.583079 0.034772 1.895193
-0.574045 0.034762 1.896460
-0.560440 0.034470 1.882261
-0.546007 0.034117 1.864609
-0.532233 0.033794 1.848505
-0.513433 0.033136 1.813952
-0.503821 0.033060 1.811090
-0.496303 0.033120 1.815663
-0.484863 0.032916 1.805674
-0.471313 0.032560 1.787206
-0.452507 0.031821 1.747647
-0.441786 0.031634 1.738309
-0.434956 0.031723 1.744120
-0.426662 0.031708 1.744076
-0.417085 0.031594 1.738592
-0.404256 0.031225 1.718976
-0.388492 0.030610 1.685737
-0.379091 0.030481 1.679220
-0.372058 0.030541 1.683067
-0.363420 0.030470 1.679598
-0.349825 0.029970 1.652493
-0.335934 0.029422 1.622672
-0.327913 0.029375 1.620431
-0.320819 0.029411 1.622718
-0.313305 0.029409 1.622889
-0.303968 0.029232 1.613346
-0.291766 0.028763 1.587690
-0.281730 0.028490 1.572757
-0.274162 0.028458 1.571133
-0.267391 0.028509 1.574083
-0.258890 0.028373 1.566695
-0.247970 0.027957 1.543792
-0.240770 0.027948 1.543358
-0.232502 0.027811 1.535815
-0.224861 0.027743 1.532058
-0.215903 0.027502 1.518767
-0.206869 0.027235 1.504024
-0.198281 0.027011 1.491592
-0.190128 0.026832 1.481659
-0.183042 0.026795 1.479589
-0.175333 0.026661 1.472130
-0.167076 0.026430 1.459285
-0.160082 0.026387 1.456844
-0.153716 0.026448 1.460163
-0.145211 0.026130 1.442533
-0.137583 0.025948 1.432357
-0.130236 0.025802 1.424218
-0.123174 0.025700 1.418523
-0.116190 0.025604 1.413133
-0.109537 0.025574 1.411382
-0.101273 0.025140 1.387350
-0.094346 0.025002 1.379647
-0.087407 0.024840 1.370643
-0.080781 0.024749 1.365549
-0.074288 0.024688 1.362062
-0.066962 0.024312 1.341244
0.000000 0.000000 0.000000
-0.043928 0.019569 1.079516
-0.038225 0.019209 1.059603
-0.033125 0.019091 1.053056
-0.028146 0.019014 1.048748
-0.023241 0.018964 1.045979
-0.018413 0.018969 1.046230
-0.013810 0.019291 1.063965
-0.008967 0.019448 1.072608
-0.004024 0.019504 1.075683
0.000948 0.019539 1.077615
0.005929 0.019548 1.078124
0.011011 0.019730 1.088162
0.016084 0.019785 1.091222
0.021254 0.019906 1.097918
0.026488 0.020028 1.104687
0.031553 0.020004 1.103381
0.036734 0.020050 1.105968
0.042040 0.020144 1.111215
0.047497 0.020283 1.118901
0.053223 0.020498 1.130804
0.058303 0.020448 1.128095
0.063872 0.020563 1.134521
0.069034 0.020540 1.133315
0.074309 0.020551 1.134010
0.080043 0.020680 1.141175
0.085902 0.020823 1.149131
0.091039 0.020784 1.147076
0.096631 0.020848 1.150677
0.102714 0.021006 1.159448
0.108362 0.021063 1.162695
0.113891 0.021093 1.164426
0.119666 0.021164 1.168401
0.124268 0.021030 1.161078
0.129537 0.021016 1.160338
0.134808 0.021003 1.159669
0.139255 0.020867 1.152232
0.143889 0.020769 1.146835
0.148125 0.020622 1.138750
0.151698 0.020395 1.126290
0.156487 0.020342 1.123381
0.162408 0.020435 1.128512
0.166814 0.020338 1.123118
0.171901 0.020326 1.122479
0.176175 0.020223 1.116711
0.178886 0.019950 1.101627
0.183893 0.019942 1.101112
0.188968 0.019941 1.101003
0.193596 0.019895 1.098338
0.197360 0.019764 1.091011
0.202139 0.019739 1.089499
0.206366 0.019662 1.085131
0.210272 0.019560 1.079292
0.214029 0.019448 1.072950
0.217897 0.019352 1.067410
0.221699 0.019254 1.061766
0.224969 0.019115 1.053840
0.229655 0.019099 1.052710
0.234117 0.019066 1.050577
0.238534 0.019031 1.048296
0.242518 0.018963 1.044201
0.245644 0.018833 1.036602
0.249103 0.018732 1.030626
0.253846 0.018730 1.030042
0.258527 0.018723 1.029184
0.262031 0.018633 1.023703
0.265443 0.018540 1.018014
0.268997 0.018459 1.013007
0.273013 0.018413 1.009828
0.276301 0.018320 1.004050
0.279931 0.018252 0.999628
0.284063 0.018219 0.997054
0.288556 0.018210 0.995745
0.292169 0.018146 0.991419
0.296412 0.018123 0.989266
0.300880 0.018114 0.987846
0.304454 0.018052 0.983505
0.308870 0.018041 0.981898
0.311920 0.017952 0.975984
0.314869 0.017860 0.969861
0.318940 0.017833 0.967239
0.323819 0.017852 0.967024
0.327382 0.017798 0.962850
0.330352 0.017714 0.956993
0.333575 0.017646 0.951937
0.336761 0.017577 0.946829
0.340041 0.017516 0.942030
0.343162 0.017447 0.936840
0.346435 0.017389 0.932104
0.350144 0.017353 0.928558
0.353829 0.017317 0.924946
0.357754 0.017293 0.921952
0.361890 0.017280 0.919471
0.365929 0.017263 0.916711
0.368541 0.017180 0.910397
0.371670 0.017122 0.905412
0.373996 0.017030 0.898532
0.380306 0.017118 0.901181
0.385507 0.017156 0.901063
0.387881 0.017068 0.894337
0.390675 0.017000 0.888653
0.394539 0.016980 0.885434
0.398267 0.016954 0.881920
0.402132 0.016935 0.878724
0.405753 0.016906 0.875021
0.408565 0.016845 0.869635
0.410810 0.016761 0.863151
0.413947 0.016715 0.858649
0.418609 0.016731 0.857366
0.423310 0.016749 0.856188
0.424455 0.016626 0.847945
0.426799 0.016553 0.842294
0.430909 0.016549 0.840263
0.434727 0.016534 0.837776
0.437132 0.016466 0.832729
0.441368 0.016467 0.831337
0.445934 0.016481 0.830695
0.455512 0.016678 0.839422
-0.372575 0.015843 0.633095
-0.370902 0.015909 0.635498
-0.368960 0.015965 0.637617
-0.366902 0.016017 0.639710
-0.364674 0.016062 0.641680
-0.362300 0.016101 0.643563
-0.365944 0.016411 0.656410
-0.365845 0.016558 0.662861
-0.365958 0.016716 0.669956
-0.364724 0.016816 0.674826
-0.361950 0.016846 0.677029
-0.357768 0.016810 0.676712
-0.354174 0.016802 0.677598
-0.350108 0.016770 0.677662
-0.348702 0.016867 0.682995
-0.346756 0.016939 0.687430
-0.344087 0.016977 0.690553
-0.337931 0.016842 0.686686
0.000000 0.000000 0.000000
0.000000 0.000000 0.000000
0.000000 0.000000 0.000000
0.000000 0.000000 0.000000
0.000000 0.000000 0.000000
0.000000 0.000000 0.000000
0.000000 0.000000 0.000000
0.000000 0.000000 0.000000
0.000000 0.000000 0.000000
0.000000 0.000000 0.000000
0.000000 0.000000 0.000000
0.000000 0.000000 0.000000
0.000000 0.000000 0.000000
0.000000 0.000000 0.000000
0.000000 0.000000 0.000000
0.000000 0.000000 0.000000
0.000000 0.000000 0.000000
0.000000 0.000000 0.000000
0.000000 0.000000 0.000000
0.000000 0.000000 0.000000
-0.781434 0.049457 2.113954
-0.766004 0.049112 2.102689
-0.743196 0.048278 2.070305
-0.724855 0.047716 2.049357
-0.710328 0.047393 2.038503
-0.687427 0.046495 2.002710
-0.673975 0.046220 1.993564
-0.659546 0.045869 1.981004
-0.639571 0.045117 1.950942
-0.626002 0.044802 1.939598
-0.617090 0.044815 1.942371
-0.602147 0.044385 1.925776
-0.592719 0.044354 1.926397
-0.578202 0.043935 1.910070
-0.559102 0.043149 1.877652
-0.543353 0.042602 1.855436
-0.531597 0.042354 1.846191
-0.516516 0.041829 1.824742
-0.506116 0.041672 1.819243
-0.495919 0.041527 1.814166
-0.484563 0.041278 1.804472
-0.469287 0.040681 1.779442
-0.453739 0.040038 1.752329
-0.440294 0.039560 1.732368
-0.430977 0.039443 1.728095
-0.423257 0.039469 1.730088
-0.410893 0.039056 1.712719
-0.399573 0.038728 1.699003
-0.387006 0.038263 1.679236
-0.376845 0.038021 1.669221
-0.370118 0.038124 1.674246
-0.361387 0.038020 1.670161
-0.350621 0.037692 1.656213
-0.339416 0.037302 1.639457
-0.329008 0.036983 1.625811
-0.321090 0.036937 1.624060
-0.313331 0.036906 1.622995
-0.303611 0.036637 1.611427
-0.294139 0.036386 1.600580
-0.283663 0.035994 1.583524
-0.274846 0.035798 1.575038
-0.267781 0.035825 1.576361
-0.257264 0.035379 1.556842
-0.246833 0.034920 1.536705
-0.238712 0.034770 1.530163
-0.231565 0.034757 1.529625
-0.223904 0.034664 1.525538
-0.217385 0.034747 1.529192
-0.209195 0.034559 1.520936
-0.199385 0.034082 1.499906
-0.190306 0.033700 1.483053
-0.183256 0.033662 1.481332
-0.176532 0.033683 1.482210
-0.168919 0.033530 1.475392
-0.161022 0.033305 1.465416
-0.153741 0.033193 1.460413
-0.144886 0.032715 1.439329
-0.137155 0.032458 1.427915
-0.130407 0.032419 1.426113
-0.123100 0.032229 1.417688
-0.115778 0.032014 1.408148
-0.108157 0.031686 1.393621
-0.102115 0.031808 1.398914
-0.094561 0.031444 1.382808
-0.087756 0.031294 1.376144
-0.081098 0.031178 1.370939
-0.074409 0.031028 1.364292
0.000000 0.000000 0.000000
0.000000 0.000000 0.000000
-0.043296 0.024203 1.064021
-0.038226 0.024105 1.059671
-0.033196 0.024007 1.055322
-0.028188 0.023894 1.050343
-0.023219 0.023774 1.045012
-0.018298 0.023653 1.039711
-0.013481 0.023628 1.038578
-0.008816 0.023992 1.054556
-0.004016 0.024426 1.073637
0.000945 0.024441 1.074303
0.005918 0.024485 1.076203
0.010936 0.024588 1.080753
0.015988 0.024679 1.084792
0.020892 0.024553 1.079252
0.026259 0.024914 1.095153
0.031387 0.024969 1.097599
0.036548 0.025031 1.100374
0.041837 0.025155 1.105858
0.047396 0.025397 1.116545
0.052684 0.025460 1.119374
0.057871 0.025468 1.119763
0.063147 0.025510 1.121671
0.068423 0.025546 1.123309
0.073804 0.025613 1.126333
0.079430 0.025750 1.132449
0.084929 0.025833 1.136133
0.090068 0.025802 1.134868
0.095798 0.025935 1.140777
0.101608 0.026074 1.146984
0.107228 0.026154 1.150547
0.113123 0.026289 1.156584
0.119219 0.026458 1.164045
0.124708 0.026482 1.165205
0.129707 0.026405 1.161865
0.134278 0.026251 1.155121
0.139511 0.026232 1.154360
0.143577 0.026004 1.144355
0.148258 0.025899 1.139779
0.153150 0.025837 1.137076
0.158326 0.025826 1.136585
0.163852 0.025870 1.138550
0.168897 0.025839 1.137142
0.171933 0.025510 1.122684
0.175612 0.025294 1.113134
0.179823 0.025165 1.107390
0.184199 0.025065 1.102934
0.189156 0.025047 1.102086
0.193647 0.024970 1.098614
0.197136 0.024772 1.089758
0.201489 0.024689 1.085978
0.205857 0.024612 1.082434
0.210026 0.024515 1.078010
0.213941 0.024394 1.072488
0.218070 0.024302 1.068233
0.221134 0.024098 1.059036
0.225074 0.023996 1.054308
0.229083 0.023906 1.050059
0.233774 0.023889 1.049011
0.238022 0.023829 1.046016
0.242193 0.023764 1.042767
0.245200 0.023589 1.034690
0.249252 0.023519 1.031205
0.253831 0.023501 1.029944
0.259118 0.023548 1.031493
0.262897 0.023458 1.027041
0.263718 0.023113 1.011352
0.268569 0.023126 1.011346
0.273252 0.023125 1.010660
0.276617 0.023014 1.005147
0.280414 0.022943 1.001299
0.284873 0.022927 0.999843
0.288894 0.022876 0.996853
0.291462 0.022714 0.988961
0.295173 0.022645 0.985070
0.299966 0.022660 0.984782
0.304619 0.022664 0.983970
0.306630 0.022474 0.974709
0.311687 0.022510 0.975186
0.314985 0.022419 0.970145
0.318665 0.022358 0.966331
0.322982 0.022342 0.964446
0.327659 0.022352 0.963587
0.330874 0.022263 0.958424
0.332725 0.022086 0.949429
0.335948 0.022003 0.944458
0.339197 0.021924 0.939605
0.342743 0.021866 0.935607
0.346696 0.021836 0.932714
0.350825 0.021817 0.930271
0.355034 0.021803 0.928003
0.358626 0.021752 0.924102
0.361427 0.021656 0.918196
0.365503 0.021637 0.915545
0.369609 0.021620 0.912934
0.371893 0.021498 0.905855
0.375323 0.021445 0.901617
0.380445 0.021488 0.901404
0.386358 0.021574 0.902946
0.387489 0.021395 0.893327
0.391372 0.021370 0.890132
0.394535 0.021306 0.885319
0.396709 0.021191 0.878366
0.400250 0.021151 0.874508
0.403982 0.021122 0.871097
0.407785 0.021096 0.867871
0.410947 0.021039 0.863339
0.414199 0.020987 0.859076
0.417409 0.020935 0.854814
0.421024 0.020903 0.851473
0.424262 0.020853 0.847473
0.427100 0.020785 0.842806
0.430528 0.020747 0.839445
0.432897 0.020659 0.834179
0.437171 0.020663 0.832739
0.442091 0.020697 0.832640
0.446797 0.020720 0.832250
0.448931 0.020625 0.827250
-0.373272 0.019096 0.634292
-0.370919 0.019141 0.635536
-0.368577 0.019187 0.636957
-0.366800 0.019264 0.639527
-0.364767 0.019328 0.641832
-0.362857 0.019401 0.644534
-0.364392 0.019660 0.653599
-0.366118 0.019935 0.663321
-0.366578 0.020145 0.671050
-0.364323 0.020209 0.674036
-0.360490 0.020185 0.674242
-0.357505 0.020209 0.676153
-0.354623 0.020239 0.678391
-0.351410 0.020251 0.680109
-0.348682 0.020291 0.682877
-0.346840 0.020384 0.687512
-0.342167 0.020311 0.686613
-0.345284 0.020703 0.701535
0.000000 0.000000 0.000000
0.000000 0.000000 0.000000
0.000000 0.000000 0.000000
0.000000 0.000000 0.000000
0.000000 0.000000 0.000000
0.000000 0.000000 0.000000
0.000000 0.000000 0.000000
0.000000 0.000000 0.000000
0.000000 0.000000 0.000000
0.000000 0.000000 0.000000
0.000000 0.000000 0.000000
0.000000 0.000000 0.000000
0.000000 0.000000 0.000000
0.000000 0.000000 0.000000
0.000000 0.000000 0.000000
0.000000 0.000000 0.000000
0.000000 0.000000 0.000000
-0.819531 0.060084 2.122974
0.000000 0.000000 0.000000
0.000000 0.000000 0.000000
0.000000 0.000000 0.000000
-0.768498 0.059277 2.109293
-0.737103 0.057605 2.053100
-0.719377 0.056972 2.033647
-0.702841 0.056416 2.016802
-0.690403 0.056179 2.011173
-0.678950 0.056016 2.008079
-0.654910 0.054796 1.966888
-0.642451 0.054523 1.959541
-0.628684 0.054130 1.947730
-0.613485 0.053601 1.930855
-0.604316 0.053590 1.932547
-0.593010 0.053386 1.927185
-0.581942 0.053198 1.922272
-0.559179 0.051919 1.877765
-0.544253 0.051337 1.858373
-0.529831 0.050786 1.839928
-0.521541 0.050813 1.842370
-0.505126 0.050036 1.815565
-0.494766 0.049844 1.809833
-0.485781 0.049785 1.808896
-0.474042 0.049437 1.797369
-0.452802 0.048068 1.748614
-0.440575 0.047623 1.733380
-0.431412 0.047500 1.729751
-0.417079 0.046791 1.704756
-0.407359 0.046583 1.697912
-0.398277 0.046441 1.693421
-0.388398 0.046198 1.685208
-0.377547 0.045827 1.672271
-0.367514 0.045543 1.662411
-0.359940 0.045557 1.663421
-0.351074 0.045405 1.658305
-0.340561 0.045028 1.644940
-0.328651 0.044445 1.624004
-0.318265 0.044046 1.609734
-0.310694 0.044027 1.609304
-0.302836 0.043965 1.607285
-0.292167 0.043481 1.589824
-0.284173 0.043381 1.586351
-0.276635 0.043347 1.585266
-0.268776 0.043260 1.582205
-0.258327 0.042739 1.563265
-0.249918 0.042536 1.555901
-0.241049 0.042240 1.545135
-0.231770 0.041852 1.530975
-0.223540 0.041635 1.523052
-0.217322 0.041790 1.528750
-0.208526 0.041444 1.516077
-0.199627 0.041052 1.501729
-0.190787 0.040645 1.486805
-0.183934 0.040647 1.486822
-0.176870 0.040600 1.485059
-0.169426 0.040459 1.479832
-0.160863 0.040028 1.463983
-0.152316 0.039563 1.446900
-0.144447 0.039239 1.434980
-0.136540 0.038873 1.421534
-0.129533 0.038740 1.416580
-0.122774 0.038671 1.413961
-0.115366 0.038378 1.403163
-0.108477 0.038233 1.397774
-0.101387 0.037994 1.388958
-0.095753 0.038306 1.400268
-0.088151 0.037818 1.382366
-0.081110 0.037514 1.371176
-0.073891 0.037069 1.354832
0.000000 0.000000 0.000000
-0.048629 0.029370 1.073317
-0.043462 0.029229 1.068117
-0.038266 0.029029 1.060797
-0.033205 0.028889 1.055630
-0.028227 0.028785 1.051803
-0.023259 0.028651 1.046882
-0.018276 0.028422 1.038494
-0.013466 0.028395 1.037484
-0.008629 0.028249 1.032128
-0.003873 0.028339 1.035422
0.000936 0.029134 1.064448
0.005911 0.029421 1.074954
0.010919 0.029534 1.079093
0.015890 0.029508 1.078135
0.020949 0.029619 1.082224
0.025979 0.029653 1.083505
0.031245 0.029903 1.092666
0.036319 0.029925 1.093504
0.041718 0.030177 1.102747
0.047104 0.030366 1.109691
0.052329 0.030423 1.111848
0.057420 0.030400 1.111049
0.062686 0.030466 1.113514
0.068066 0.030573 1.117480
0.073519 0.030695 1.121999
0.079074 0.030841 1.127405
0.084418 0.030891 1.129330
0.089511 0.030849 1.127862
0.094905 0.030911 1.130164
0.100919 0.031156 1.139221
0.106485 0.031247 1.142595
0.112026 0.031321 1.145384
0.118160 0.031548 1.153728
0.124322 0.031761 1.161612
0.129120 0.031624 1.156628
0.133731 0.031453 1.150424
0.138731 0.031383 1.147918
0.144223 0.031425 1.149513
0.148424 0.031193 1.141059
0.153511 0.031157 1.139763
0.158527 0.031110 1.138031
0.162613 0.030888 1.129938
0.167922 0.030906 1.130571
0.171570 0.030626 1.120309
0.175348 0.030385 1.111454
0.179248 0.030178 1.103842
0.184493 0.030203 1.104689
0.190473 0.030343 1.109749
0.192627 0.029883 1.092813
0.196740 0.029742 1.087554
0.201199 0.029659 1.084395
0.205876 0.029612 1.082513
0.210264 0.029526 1.079208
0.214467 0.029419 1.075102
0.218287 0.029266 1.069268
0.221470 0.029035 1.060616
0.224359 0.028777 1.050925
0.228437 0.028679 1.047061
0.233443 0.028700 1.047488
0.237230 0.028572 1.042496
0.241972 0.028563 1.041775
0.247044 0.028592 1.042428
0.249746 0.028351 1.033202
0.254570 0.028355 1.032891
0.259220 0.028340 1.031847
0.261502 0.028072 1.021538
0.263839 0.027819 1.011762
0.269026 0.027870 1.013010
0.273006 0.027796 1.009689
0.277170 0.027743 1.007091
0.281441 0.027702 1.004899
0.285375 0.027631 1.001535
0.288259 0.027461 0.994590
0.290063 0.027196 0.984138
0.293857 0.027122 0.980602
0.300179 0.027281 0.985399
0.303962 0.027207 0.981768
0.307307 0.027097 0.976776
0.310349 0.026964 0.970911
0.314509 0.026931 0.968588
0.318630 0.026895 0.966132
0.322565 0.026844 0.963106
0.326430 0.026790 0.959875
0.328877 0.026622 0.952540
0.332309 0.026537 0.948140
0.335616 0.026445 0.943419
0.339095 0.026368 0.939216
0.343311 0.026350 0.937046
0.347122 0.026302 0.933748
0.351750 0.026316 0.932609
0.355605 0.026273 0.929378
0.358017 0.026125 0.922414
0.361088 0.026029 0.917214
0.364747 0.025976 0.913529
0.368070 0.025902 0.909010
0.370477 0.025765 0.902281
0.375537 0.025814 0.902006
0.380418 0.025849 0.901213
0.383799 0.025783 0.896838
0.387619 0.025748 0.893496
0.390520 0.025653 0.888064
0.394296 0.025617 0.884654
0.397225 0.025528 0.879379
0.398813 0.025355 0.871240
0.402585 0.025323 0.867959
0.406958 0.025329 0.865987
0.411353 0.025336 0.864070
0.414142 0.025246 0.858838
0.416790 0.025148 0.853433
0.419963 0.025084 0.849218
0.424646 0.025111 0.848135
0.427952 0.025056 0.844387
0.430063 0.024933 0.838445
0.432699 0.024843 0.833711
0.437031 0.024851 0.832394
0.440881 0.024832 0.830288
0.445490 0.024855 0.829751
0.446228 0.024664 0.822214
-0.373349 0.022324 0.634442
-0.370439 0.022343 0.634724
-0.368072 0.022395 0.636087
-0.365757 0.022451 0.637703
-0.363926 0.022539 0.640338
-0.361837 0.022611 0.642700
-0.362264 0.022844 0.649753
-0.365702 0.023273 0.662529
-0.365219 0.023458 0.668515
-0.362867 0.023525 0.671287
-0.360341 0.023582 0.673901
-0.359127 0.023727 0.679150
-0.357221 0.023828 0.683281
-0.352605 0.023749 0.682337
-0.349805 0.023792 0.684985
-0.345945 0.023763 0.685641
-0.344993 0.023935 0.692181
-0.334454 0.023439 0.679425
0.000000 0.000000 0.000000
0.000000 0.000000 0.000000
0.000000 0.000000 0.000000
0.000000 0.000000 0.000000
0.000000 0.000000 0.000000
0.000000 0.000000 0.000000
0.000000 0.000000 0.000000
0.000000 0.000000 0.000000
0.000000 0.000000 0.000000
0.000000 0.000000 0.000000
0.000000 0.000000 0.000000
0.000000 0.000000 0.000000
0.000000 0.000000 0.000000
0.000000 0.000000 0.000000
0.000000 0.000000 0.000000
0.000000 0.000000 0.000000
0.000000 0.000000 0.000000
-0.833082 0.071387 2.157752
0.000000 0.000000 0.000000
-0.802850 0.070542 2.140054
-0.779653 0.069384 2.108589
-0.764410 0.068914 2.097784
-0.749694 0.068478 2.087893
-0.720947 0.066733 2.037819
-0.706025 0.066237 2.025681
-0.693469 0.065953 2.019855
-0.678952 0.065471 2.007845
-0.663136 0.064849 1.991362
-0.643899 0.063870 1.963740
-0.629825 0.063382 1.951054
-0.618884 0.063199 1.947642
-0.593501 0.061514 1.897771
-0.586158 0.061676 1.904729
-0.580422 0.062015 1.917070
-0.573203 0.062204 1.924685
-0.554945 0.061181 1.894715
-0.528505 0.059209 1.835167
-0.514685 0.058609 1.818005
-0.503090 0.058246 1.808106
-0.495569 0.058351 1.812636
-0.486567 0.058282 1.811694
-0.474139 0.057793 1.797614
-0.453340 0.056248 1.750578
-0.442540 0.055910 1.741006
-0.435702 0.056069 1.746850
-0.420218 0.055101 1.717493
-0.408700 0.054625 1.703412
-0.402218 0.054816 1.710091
-0.391044 0.054363 1.696610
-0.378885 0.053752 1.678123
-0.368517 0.053375 1.666878
-0.360963 0.053398 1.668081
-0.352858 0.053338 1.666670
-0.340801 0.052665 1.646046
-0.327596 0.051780 1.618739
-0.317615 0.051375 1.606400
-0.310376 0.051405 1.607613
-0.302853 0.051388 1.607337
-0.290703 0.050566 1.581827
-0.282051 0.050325 1.574477
-0.276438 0.050628 1.584114
-0.266915 0.050212 1.571228
-0.260224 0.050320 1.574725
-0.251383 0.050007 1.565008
-0.241972 0.049559 1.551041
-0.232170 0.049000 1.533610
-0.223168 0.048581 1.520517
-0.213854 0.048065 1.504355
-0.207145 0.048119 1.506040
-0.198494 0.047709 1.493216
-0.190424 0.047415 1.483984
-0.183908 0.047501 1.486623
-0.176945 0.047473 1.485705
-0.167241 0.046679 1.460770
-0.159192 0.046298 1.448799
-0.152215 0.046210 1.445958
-0.145025 0.046046 1.440747
-0.136931 0.045565 1.425636
-0.128966 0.045081 1.410405
-0.122338 0.045038 1.408968
-0.115626 0.044957 1.406346
-0.109509 0.045111 1.411107
-0.102605 0.044941 1.405683
-0.094664 0.044262 1.384379
-0.088164 0.044208 1.382607
-0.080304 0.043410 1.357584
-0.073414 0.043046 1.346119
0.000000 0.000000 0.000000
-0.048655 0.034346 1.073933
-0.043353 0.034077 1.065484
-0.038211 0.033881 1.059310
-0.033208 0.033769 1.055775
-0.028213 0.033628 1.051330
-0.023222 0.033433 1.045217
-0.018335 0.033327 1.041863
-0.013421 0.033076 1.034019
-0.008615 0.032966 1.030558
-0.003844 0.032881 1.027896
0.000906 0.032943 1.029849
0.005832 0.033925 1.060549
0.010895 0.034444 1.076779
0.015926 0.034566 1.080611
0.020838 0.034435 1.076527
0.025814 0.034439 1.076661
0.030811 0.034465 1.077532
0.036026 0.034694 1.084718
0.041244 0.034870 1.090268
0.046708 0.035192 1.100385
0.051863 0.035242 1.101978
0.056985 0.035263 1.102679
0.062160 0.035309 1.104191
0.067672 0.035526 1.111030
0.073369 0.035803 1.119747
0.078489 0.035780 1.119096
0.083292 0.035624 1.114286
0.089208 0.035934 1.124071
0.094482 0.035967 1.125147
0.099827 0.036021 1.126926
0.105743 0.036266 1.134648
0.111311 0.036374 1.138096
0.116660 0.036404 1.139096
0.122081 0.036453 1.140689
0.127752 0.036570 1.144387
0.133105 0.036589 1.145052
0.138411 0.036595 1.145281
0.143819 0.036626 1.146293
0.148959 0.036590 1.145181
0.153330 0.036373 1.138421
0.157106 0.036035 1.127833
